ply
format ascii 1.0
element vertex 1596
property float x
property float y
property float z
end_header
-1.332675 -3.202690 -0.001636
-1.311152 -2.790258 -0.001557
-1.261950 -2.360217 -0.001486
-1.029372 -0.265690 -0.000887
-1.258959 -2.329285 -0.001478
-1.263508 -2.371583 -0.001487
-1.189949 -1.760931 -0.001332
-1.044977 -0.373828 -0.000908
-1.261815 -2.346633 -0.001474
-1.214945 -1.932263 -0.001374
-1.043996 -0.364349 -0.000904
-1.219618 -1.966218 -0.001381
-1.039531 -0.321382 -0.000893
-1.216742 -1.940451 -0.001372
-1.209283 -1.878272 -0.001352
-1.033461 -0.262819 -0.000879
-1.217268 -1.937762 -0.001366
-1.197495 -1.790406 -0.001325
-1.213922 -1.907985 -0.001356
-1.124364 -1.278042 -0.001159
-1.216790 -1.926875 -0.001358
-1.209008 -1.862186 -0.001339
-1.189389 -1.723022 -0.001299
-1.210956 -1.872861 -0.001339
-1.210956 -1.872861 -0.001339
-1.217150 -1.920219 -0.001350
-1.031273 -0.195442 -0.000860
-1.213430 -1.884933 -0.001337
-1.216435 -1.906374 -0.001341
-1.140996 -0.934517 -0.001064
-1.065178 -0.458314 -0.000917
-1.072387 -0.504131 -0.000929
-1.214848 -1.886580 -0.001334
-1.248053 -2.170068 -0.001403
-1.212042 -1.868519 -0.001328
-1.217193 -1.906653 -0.001337
-1.217193 -1.906653 -0.001337
-1.268609 -2.376989 -0.001447
-1.214511 -1.881155 -0.001329
-1.213024 -1.870852 -0.001325
-1.252708 -2.209900 -0.001408
-1.216298 -1.895038 -0.001331
-1.211073 -1.853255 -0.001319
-1.073475 -0.502005 -0.000925
-1.028716 -0.115827 -0.000845
-1.212137 -1.859097 -0.001320
-1.214299 -1.874040 -0.001322
-1.216663 -1.890956 -0.001325
-1.216663 -1.890956 -0.001325
-1.216663 -1.890956 -0.001325
-1.234441 -2.033623 -0.001360
-1.069693 -0.467983 -0.000914
-1.218346 -1.901813 -0.001327
-1.213031 -1.860298 -0.001316
-1.248345 -2.153560 -0.001388
-1.027883 -0.062040 -0.000838
-1.034409 -0.162889 -0.000848
-1.218361 -1.895840 -0.001321
-1.217553 -1.887685 -0.001318
-1.219316 -1.899554 -0.001320
-1.215858 -1.873495 -0.001313
-1.217540 -1.881571 -0.001312
-1.214609 -1.858079 -0.001306
-1.215137 -1.862546 -0.001307
-1.216606 -1.871655 -0.001308
-1.265110 -2.308830 -0.001409
-1.241080 -2.069065 -0.001356
-1.218221 -1.881532 -0.001309
-1.212822 -1.838135 -0.001297
-1.212822 -1.838135 -0.001297
-1.033323 -0.089611 -0.000835
-1.248264 -2.130012 -0.001364
-1.218998 -1.880756 -0.001303
-1.038056 -0.149154 -0.000839
-1.187327 -1.646354 -0.001239
-1.187327 -1.646354 -0.001239
-1.266917 -2.319391 -0.001404
-1.214485 -1.843658 -0.001293
-1.217126 -1.862424 -0.001297
-1.212690 -1.827296 -0.001288
-1.242751 -2.072371 -0.001348
-1.238978 -2.038082 -0.001340
-1.040061 -0.168067 -0.000841
-1.219738 -1.881913 -0.001301
-1.219738 -1.881913 -0.001301
-1.246727 -2.109840 -0.001354
-1.267094 -2.312773 -0.001398
-1.248863 -2.127393 -0.001357
-1.219087 -1.869774 -0.001294
-1.157195 -0.990022 -0.001054
-1.212642 -1.818879 -0.001280
-1.215400 -1.841211 -0.001286
-1.241649 -2.053320 -0.001338
-1.217970 -1.859020 -0.001289
-1.217970 -1.859020 -0.001289
-1.245784 -2.089287 -0.001344
-1.185080 -1.614772 -0.001221
-1.185080 -1.614772 -0.001221
-1.265420 -2.276710 -0.001384
-1.239249 -2.026507 -0.001328
-1.156260 -0.975715 -0.001045
-1.212507 -1.806146 -0.001269
-1.215668 -1.830323 -0.001275
-1.056082 -0.286362 -0.000853
-1.211705 -1.794918 -0.001264
-1.217059 -1.836240 -0.001274
-1.256485 -2.175114 -0.001352
-1.215547 -1.819613 -0.001266
-1.217259 -1.827673 -0.001266
-1.215049 -1.810100 -0.001261
-1.210870 -1.775147 -0.001250
-1.216004 -1.816227 -0.001261
-1.214381 -1.801883 -0.001256
-1.212299 -1.785142 -0.001252
-1.246493 -2.062423 -0.001315
-1.211389 -1.770350 -0.001244
-1.212549 -1.778339 -0.001245
-1.215393 -1.801311 -0.001251
-1.215393 -1.801311 -0.001251
-1.129998 -0.782877 -0.000974
-1.213953 -1.787828 -0.001246
-1.213953 -1.787828 -0.001246
-1.243443 -2.028476 -0.001304
-1.215871 -1.798551 -0.001246
-1.239514 -1.987501 -0.001290
-1.212365 -1.766952 -0.001236
-1.156540 -1.368246 -0.001122
-1.238180 -1.972951 -0.001286
-1.215199 -1.785857 -0.001238
-1.243798 -2.020776 -0.001294
-1.257912 -2.148823 -0.001322
-1.216065 -1.791622 -0.001239
-1.239950 -1.983502 -0.001285
-1.228575 -1.887130 -0.001261
-1.212729 -1.760729 -0.001229
-1.216838 -1.788185 -0.001234
-1.042255 -0.049001 -0.000807
-1.243466 -2.010592 -0.001286
-1.261608 -2.174624 -0.001319
-1.258730 -2.145850 -0.001311
-1.319875 -2.823802 -0.001431
-1.214986 -1.766974 -0.001223
-1.262362 -2.179674 -0.001318
-1.264211 -2.197729 -0.001320
-1.320043 -2.824067 -0.001424
-1.261229 -2.159152 -0.001307
-1.155992 -1.329177 -0.001093
-1.224380 -1.823737 -0.001227
-1.126927 -1.124509 -0.001027
-1.216367 -1.755241 -0.001207
-1.221899 -1.797301 -0.001217
-1.232571 -1.882169 -0.001236
-1.302580 -2.567818 -0.001369
-1.318654 -2.779009 -0.001401
-1.147517 -1.250417 -0.001061
-1.190478 -1.552111 -0.001148
-1.220762 -1.777831 -0.001206
-1.312794 -2.692222 -0.001382
-1.260215 -2.117340 -0.001278
-1.261983 -2.134107 -0.001281
-1.191678 -1.541065 -0.001137
-1.305352 -2.585063 -0.001358
-1.315034 -2.708308 -0.001377
-1.317887 -2.745613 -0.001378
-1.311471 -2.652616 -0.001360
-1.244965 -1.960163 -0.001233
-1.314849 -2.699370 -0.001366
-1.256000 -2.059260 -0.001252
-1.202499 -1.605373 -0.001144
-1.242763 -1.935111 -0.001224
-1.315142 -2.692290 -0.001362
-1.072650 -0.258101 -0.000810
-1.255348 -2.047781 -0.001247
-1.311112 -2.639818 -0.001352
-1.244169 -1.945652 -0.001224
-1.242386 -1.929008 -0.001220
-1.309702 -2.618843 -0.001348
-1.201759 -1.591521 -0.001137
-1.235786 -1.860640 -0.001198
-1.233915 -1.839942 -0.001190
-1.303046 -2.462395 -0.001307
-1.233384 -1.832116 -0.001187
-1.288826 -2.320508 -0.001283
-1.229747 -1.790705 -0.001177
-1.311951 -2.623505 -0.001334
-1.233144 -1.820771 -0.001179
-1.254820 -2.020763 -0.001222
-1.129191 -1.062515 -0.000973
-1.302815 -2.447458 -0.001295
-1.227702 -1.766871 -0.001164
-1.187568 -1.452099 -0.001082
-1.231964 -1.801964 -0.001169
-1.151987 -0.856005 -0.000933
-1.153742 -0.867403 -0.000936
-1.224483 -1.728678 -0.001149
-1.096159 -0.460438 -0.000830
-1.232928 -1.804205 -0.001166
-1.159056 -0.896621 -0.000942
-1.158876 -0.896471 -0.000941
-1.094991 -0.445659 -0.000826
-1.059682 -0.055711 -0.000769
-1.230773 -1.779773 -0.001158
-1.266386 -2.104291 -0.001227
-1.058637 -0.030184 -0.000768
-1.223902 -1.716247 -0.001142
-1.046235 -0.625796 -0.000824
-1.226615 -1.737989 -0.001147
-1.227980 -1.744131 -0.001147
-1.249282 -1.943103 -0.001188
-1.302202 -2.415193 -0.001271
-1.225594 -1.716078 -0.001135
-1.141456 -1.109539 -0.000972
-1.226942 -1.722992 -0.001135
-1.226942 -1.722992 -0.001135
-1.312233 -2.577488 -0.001294
-1.312233 -2.577488 -0.001294
-1.228087 -1.730129 -0.001134
-1.096954 -0.433362 -0.000816
-1.300919 -2.390299 -0.001260
-1.227426 -1.721817 -0.001131
-1.247743 -1.916783 -0.001173
-1.302481 -2.405577 -0.001260
-1.079017 -0.225566 -0.000779
-1.181024 -1.366488 -0.001039
-1.181024 -1.366488 -0.001039
-1.299418 -2.364243 -0.001250
-1.184386 -1.377754 -0.001038
-1.301802 -2.387976 -0.001249
-1.249942 -1.920327 -0.001164
-1.203576 -1.509848 -0.001068
-1.066599 -0.026908 -0.000755
-1.247538 -1.894132 -0.001156
-1.227049 -1.693566 -0.001110
-1.227049 -1.693566 -0.001110
-1.254722 -1.958566 -0.001168
-1.311347 -2.537069 -0.001267
-1.224096 -1.665471 -0.001100
-1.244430 -1.855031 -0.001141
-1.248762 -1.888537 -0.001145
-1.248762 -1.888537 -0.001145
-1.269308 -2.092764 -0.001186
-1.224650 -1.659186 -0.001093
-1.087532 -0.201988 -0.000768
-1.227143 -1.683804 -0.001098
-1.086647 -0.182436 -0.000766
-1.084784 -0.160737 -0.000763
-1.087495 -0.235868 -0.000769
-1.251982 -1.910969 -0.001145
-1.251982 -1.910969 -0.001145
-1.249428 -1.886265 -0.001139
-1.089048 -0.201924 -0.000766
-1.225980 -1.667039 -0.001090
-1.227479 -1.679898 -0.001092
-1.222189 -1.625773 -0.001078
-1.227004 -1.672341 -0.001089
-1.246899 -1.856136 -0.001130
-1.250161 -1.886735 -0.001136
-1.174201 -1.268718 -0.000988
-1.224698 -1.644671 -0.001081
-1.090504 -0.199760 -0.000763
-1.090504 -0.199760 -0.000763
-1.247960 -1.862402 -0.001129
-1.228035 -1.675849 -0.001087
-1.253689 -1.913180 -0.001138
-1.091146 -0.187421 -0.000760
-1.091968 -0.202833 -0.000761
-1.250359 -1.876333 -0.001127
-1.250359 -1.876333 -0.001127
-1.217488 -1.563957 -0.001057
-1.217488 -1.563957 -0.001057
-1.253924 -1.907899 -0.001133
-1.308692 -2.455618 -0.001227
-1.229205 -1.676840 -0.001081
-1.249515 -1.864301 -0.001122
-1.247920 -1.849478 -0.001119
-1.217527 -1.556365 -0.001053
-1.219774 -1.572875 -0.001056
-1.250353 -1.868283 -0.001120
-1.250353 -1.868283 -0.001120
-1.224315 -1.615806 -0.001064
-1.251740 -1.878144 -0.001121
-1.093948 -0.198544 -0.000757
-1.196644 -1.393162 -0.001010
-1.248581 -1.847092 -0.001114
-1.248581 -1.847092 -0.001114
-1.250763 -1.867479 -0.001118
-1.218587 -1.558025 -0.001049
-1.252052 -1.877596 -0.001119
-1.106881 -0.352791 -0.000777
-1.095500 -0.256802 -0.000761
-1.245182 -1.814336 -0.001105
-1.095412 -0.256825 -0.000760
-1.094624 -0.178901 -0.000754
-1.250302 -1.857814 -0.001113
-1.253905 -1.890249 -0.001119
-1.253905 -1.890249 -0.001119
-1.251489 -1.868287 -0.001114
-1.250927 -1.860788 -0.001112
-1.225389 -1.614854 -0.001058
-1.225659 -1.620189 -0.001059
-1.111458 -0.404401 -0.000783
-1.088906 -0.046992 -0.000742
-1.182561 -1.280020 -0.000974
-1.218059 -1.538665 -0.001037
-1.250921 -1.854262 -0.001107
-1.090642 -0.075972 -0.000743
-1.251438 -1.858894 -0.001107
-1.096560 -0.176806 -0.000750
-1.247946 -1.824023 -0.001099
-1.251797 -1.858119 -0.001106
-1.199456 -1.396216 -0.001000
-1.254240 -1.879064 -0.001108
-1.224606 -1.595335 -0.001047
-1.186666 -1.298895 -0.000975
-1.251569 -1.853934 -0.001103
-1.194352 -1.353797 -0.000989
-1.098203 -0.189063 -0.000750
-1.096367 -0.158729 -0.000747
-1.254785 -1.882152 -0.001108
-1.252048 -1.856220 -0.001102
-1.097753 -0.239713 -0.000752
-1.189882 -1.313779 -0.000977
-1.193001 -1.334900 -0.000982
-1.182678 -1.266069 -0.000964
-1.204275 -1.424244 -0.001004
-1.250970 -1.842483 -0.001097
-1.268399 -2.014154 -0.001129
-1.249601 -1.827854 -0.001093
-1.185583 -1.280107 -0.000966
-1.249320 -1.822333 -0.001090
-1.249320 -1.822333 -0.001090
-1.250173 -1.829464 -0.001092
-1.247882 -1.808096 -0.001087
-1.252969 -1.853642 -0.001096
-1.191644 -1.318764 -0.000975
-1.194993 -1.345686 -0.000981
-1.197777 -1.364109 -0.000985
-1.094260 -0.134600 -0.000738
-1.251424 -1.834370 -0.001089
-1.220802 -1.532540 -0.001023
-1.195147 -1.341495 -0.000977
-1.195147 -1.341495 -0.000977
-1.260021 -1.911934 -0.001103
-1.187628 -1.285012 -0.000963
-1.250671 -1.825410 -0.001086
-1.194281 -1.334404 -0.000974
-1.199414 -1.371975 -0.000983
-1.191366 -1.307257 -0.000967
-1.190768 -1.301221 -0.000965
-1.195327 -1.337853 -0.000973
-1.223158 -1.552912 -0.001024
-1.247802 -1.793016 -0.001076
-1.259011 -1.896472 -0.001096
-1.199545 -1.367415 -0.000979
-1.250757 -1.817534 -0.001079
-1.101306 -0.229424 -0.000743
-1.249621 -1.805726 -0.001076
-1.248381 -1.794925 -0.001074
-1.248381 -1.794925 -0.001074
-1.261224 -1.918691 -0.001099
-1.261224 -1.918691 -0.001099
-1.192215 -1.303146 -0.000962
-1.227850 -1.602661 -0.001032
-1.226943 -1.596264 -0.001031
-1.228671 -1.610215 -0.001034
-1.250073 -1.806843 -0.001074
-1.202944 -1.387231 -0.000981
-1.202944 -1.387231 -0.000981
-1.253659 -1.839562 -0.001081
-1.201691 -1.377856 -0.000978
-1.199138 -1.358442 -0.000974
-1.252775 -1.827873 -0.001077
-1.253976 -1.839188 -0.001079
-1.259945 -1.895247 -0.001090
-1.251623 -1.816558 -0.001074
-1.223813 -1.543622 -0.001015
-1.251873 -1.815437 -0.001072
-1.196173 -1.326830 -0.000963
-1.229391 -1.604536 -0.001027
-1.201294 -1.365565 -0.000972
-1.229546 -1.606277 -0.001026
-1.222845 -1.529234 -0.001009
-1.199220 -1.347860 -0.000967
-1.226323 -1.573698 -0.001019
-1.249669 -1.792311 -0.001066
-1.195072 -1.313164 -0.000958
-1.222019 -1.521036 -0.001007
-1.251333 -1.806961 -0.001068
-1.251333 -1.806961 -0.001068
-1.106003 -0.248703 -0.000741
-1.250156 -1.793326 -0.001064
-1.247903 -1.772348 -0.001060
-1.249107 -1.783561 -0.001062
-1.249292 -1.784933 -0.001062
-1.223027 -1.525544 -0.001006
-1.135152 -0.474147 -0.000779
-1.224741 -1.536726 -0.001005
-1.221704 -1.505438 -0.000998
-1.193240 -1.283387 -0.000944
-1.185208 -1.220521 -0.000927
-1.206522 -1.383388 -0.000966
-1.224862 -1.529311 -0.000999
-1.199447 -1.326679 -0.000952
-1.204980 -1.371747 -0.000963
-1.107658 -0.229124 -0.000733
-1.200142 -1.330362 -0.000953
-1.210825 -1.410271 -0.000971
-1.109898 -0.732218 -0.000798
-1.193431 -1.276639 -0.000938
-1.183221 -1.200857 -0.000919
-1.202111 -1.345961 -0.000953
-1.199193 -1.315554 -0.000945
-1.199193 -1.315554 -0.000945
-1.105838 -0.063314 -0.000721
-1.110962 -0.253331 -0.000732
-1.139777 -0.936682 -0.000846
-1.198819 -1.310423 -0.000942
-1.207520 -1.372286 -0.000957
-1.265111 -1.896836 -0.001067
-1.187231 -1.222241 -0.000920
-1.197448 -1.296105 -0.000938
-1.104714 -0.684671 -0.000781
-1.198668 -1.303954 -0.000940
-1.113536 -0.270412 -0.000733
-1.202176 -1.332035 -0.000945
-1.205637 -1.356686 -0.000950
-1.203071 -1.337796 -0.000946
-1.203071 -1.337796 -0.000946
-1.188903 -1.228913 -0.000920
-1.108149 -0.699655 -0.000784
-1.201710 -1.325113 -0.000941
-1.200766 -1.315842 -0.000938
-1.199747 -1.305833 -0.000936
-1.230678 -1.564199 -0.000993
-1.113976 -0.260885 -0.000729
-1.203581 -1.333216 -0.000941
-1.215924 -1.421155 -0.000961
-1.196140 -1.271920 -0.000926
-1.198750 -1.293355 -0.000930
-1.192184 -1.245830 -0.000918
-1.188604 -1.218594 -0.000911
-1.204395 -1.333778 -0.000938
-1.116260 -0.174725 -0.000722
-1.234473 -1.589494 -0.000994
-1.234473 -1.589494 -0.000994
-1.110551 -0.047648 -0.000713
-1.222832 -1.465748 -0.000966
-1.202943 -1.316409 -0.000931
-1.185657 -1.182455 -0.000899
-1.215542 -1.403135 -0.000951
-1.189342 -1.215810 -0.000907
-1.189342 -1.215810 -0.000907
-1.113996 -0.121830 -0.000716
-1.262956 -1.844685 -0.001042
-1.262956 -1.844685 -0.001042
-1.221945 -1.456158 -0.000963
-1.117020 -0.165296 -0.000719
-1.117823 -0.176737 -0.000720
-1.233637 -1.571487 -0.000986
-1.111687 -0.043294 -0.000711
-1.203530 -1.315675 -0.000929
-1.221261 -1.444848 -0.000958
-1.199082 -1.275608 -0.000919
-1.266741 -1.874870 -0.001045
-1.117512 -0.249490 -0.000722
-1.205127 -1.326623 -0.000930
-1.205127 -1.326623 -0.000930
-1.205127 -1.326623 -0.000930
-1.206743 -1.338984 -0.000932
-1.205322 -1.326328 -0.000929
-1.125099 -0.347168 -0.000733
-1.227727 -1.493462 -0.000965
-1.229087 -1.505087 -0.000967
-1.259662 -1.804923 -0.001028
-1.236194 -1.587602 -0.000984
-1.119713 -0.251949 -0.000720
-1.205234 -1.317489 -0.000924
-1.125916 -0.338173 -0.000730
-1.211959 -1.365458 -0.000933
-1.204282 -1.308265 -0.000920
-1.114475 -0.057112 -0.000707
-1.126684 -0.346412 -0.000730
-1.120103 -0.245424 -0.000717
-1.116183 -0.081015 -0.000707
-1.236740 -1.581874 -0.000979
-1.240104 -1.617102 -0.000985
-1.117121 -0.099141 -0.000708
-1.236220 -1.574003 -0.000976
-1.130188 -0.373640 -0.000733
-1.235490 -1.566775 -0.000974
-1.127788 -0.344365 -0.000727
-1.236042 -1.569246 -0.000972
-1.236587 -1.573626 -0.000973
-1.239498 -1.602462 -0.000978
-1.131577 -0.378785 -0.000731
-1.237216 -1.577149 -0.000973
-1.234955 -1.550767 -0.000966
-1.239355 -1.592229 -0.000973
-1.240410 -1.599605 -0.000974
-1.230756 -1.503792 -0.000952
-1.118593 -0.050650 -0.000700
-1.148230 -0.518662 -0.000750
-1.147395 -0.509450 -0.000748
-1.241765 -1.602090 -0.000970
-1.120035 -0.690168 -0.000758
-1.148122 -0.506069 -0.000745
-1.241295 -1.587359 -0.000961
-1.151361 -0.529808 -0.000748
-1.235885 -1.528155 -0.000948
-1.242325 -1.593682 -0.000961
-1.149899 -0.510730 -0.000743
-1.145847 -0.472624 -0.000736
-1.145847 -0.472624 -0.000736
-1.237292 -1.539957 -0.000949
-1.130207 -0.317163 -0.000712
-1.148942 -0.500461 -0.000741
-1.127508 -0.283257 -0.000707
-1.126334 -0.267519 -0.000705
-1.126334 -0.267519 -0.000705
-1.158967 -0.940081 -0.000813
-1.131210 -0.323432 -0.000712
-1.234341 -1.508559 -0.000941
-1.234621 -1.510667 -0.000942
-1.234621 -1.510667 -0.000942
-1.149729 -0.505285 -0.000741
-1.130793 -0.317326 -0.000711
-1.127092 -0.273964 -0.000705
-1.240587 -1.568403 -0.000953
-1.127565 -0.277011 -0.000706
-1.128191 -0.284665 -0.000706
-1.129824 -0.304281 -0.000709
-1.129824 -0.304281 -0.000709
-1.128572 -0.287516 -0.000707
-1.128265 -0.281549 -0.000706
-1.126959 -0.266041 -0.000704
-1.135538 -0.364050 -0.000717
-1.134338 -0.351014 -0.000715
-1.161954 -0.957828 -0.000815
-1.150541 -0.507509 -0.000740
-1.131870 -0.323420 -0.000711
-1.162933 -0.964055 -0.000816
-1.162933 -0.964055 -0.000816
-1.131838 -0.320518 -0.000710
-1.131410 -0.316850 -0.000710
-1.131410 -0.316850 -0.000710
-1.233101 -1.493389 -0.000936
-1.129975 -0.299813 -0.000707
-1.129975 -0.299813 -0.000707
-1.122865 -0.688293 -0.000751
-1.207853 -1.287158 -0.000891
-1.163865 -0.967701 -0.000816
-1.127408 -0.265306 -0.000703
-1.188125 -1.131980 -0.000855
-1.123517 -0.057850 -0.000691
-1.150472 -0.500758 -0.000738
-1.147509 -0.473264 -0.000733
-1.150850 -0.505042 -0.000738
-1.132501 -0.323091 -0.000709
-1.255014 -1.696955 -0.000974
-1.129076 -0.280688 -0.000704
-1.131531 -0.307599 -0.000707
-1.152798 -0.518194 -0.000740
-1.269869 -1.832866 -0.000998
-1.120162 -0.660127 -0.000742
-1.148281 -0.476317 -0.000732
-1.148281 -0.476317 -0.000732
-1.130575 -0.296526 -0.000705
-1.234538 -1.499156 -0.000934
-1.147570 -0.468925 -0.000731
-1.130140 -0.288459 -0.000704
-1.239579 -1.546836 -0.000943
-1.132388 -0.314695 -0.000707
-1.151682 -0.506818 -0.000737
-1.202493 -1.237723 -0.000877
-1.133068 -0.320221 -0.000708
-1.149068 -0.479653 -0.000732
-1.163852 -0.959016 -0.000812
-1.130710 -0.290407 -0.000703
-1.240614 -1.554040 -0.000944
-1.240614 -1.554040 -0.000944
-1.126702 -0.239938 -0.000698
-1.130339 -0.285866 -0.000703
-1.148263 -0.472578 -0.000730
-1.129215 -0.271163 -0.000701
-1.227696 -1.436470 -0.000919
-1.190644 -1.144870 -0.000855
-1.129965 -0.279674 -0.000702
-1.188425 -1.127233 -0.000851
-1.151170 -0.497116 -0.000734
-1.136069 -0.348959 -0.000711
-1.204267 -1.248430 -0.000878
-1.132436 -0.306557 -0.000705
-1.212575 -1.314042 -0.000892
-1.212575 -1.314042 -0.000892
-1.230183 -1.455604 -0.000922
-1.130951 -0.287532 -0.000702
-1.130951 -0.287532 -0.000702
-1.152114 -0.503582 -0.000735
-1.133035 -0.311908 -0.000705
-1.209278 -1.285614 -0.000885
-1.131848 -0.295560 -0.000703
-1.201750 -1.226613 -0.000872
-1.236030 -1.504661 -0.000931
-1.241753 -1.563166 -0.000943
-1.239749 -1.541062 -0.000938
-1.225999 -1.417625 -0.000913
-1.131616 -0.289526 -0.000701
-1.207493 -1.268566 -0.000880
-1.127376 -0.230572 -0.000695
-1.205360 -1.252036 -0.000877
-1.134194 -0.317991 -0.000705
-1.150950 -0.486441 -0.000731
-1.150938 -0.486417 -0.000730
-1.240391 -1.545337 -0.000938
-1.118811 -0.636920 -0.000734
-1.150218 -0.478969 -0.000729
-1.163686 -0.949139 -0.000806
-1.131789 -0.286825 -0.000700
-1.131789 -0.286825 -0.000700
-1.132991 -0.300914 -0.000702
-1.135820 -0.331092 -0.000706
-1.203166 -1.231814 -0.000871
-1.152863 -0.502156 -0.000732
-1.205203 -1.246698 -0.000874
-1.134443 -0.315298 -0.000704
-1.134443 -0.315298 -0.000704
-1.151809 -0.490801 -0.000730
-1.134955 -0.319866 -0.000704
-1.164952 -0.955131 -0.000807
-1.128404 -0.239188 -0.000694
-1.133680 -0.303488 -0.000702
-1.132438 -0.288760 -0.000700
-1.161937 -0.932768 -0.000801
-1.151091 -0.482054 -0.000728
-1.150640 -0.477686 -0.000727
-1.189409 -1.121627 -0.000845
-1.243095 -1.568800 -0.000940
-1.153974 -0.507478 -0.000732
-1.135087 -0.316860 -0.000703
-1.150139 -0.471354 -0.000726
-1.129336 -0.243663 -0.000694
-1.237144 -1.503945 -0.000927
-1.132755 -0.286780 -0.000699
-1.120022 -0.637050 -0.000732
-1.235360 -1.487816 -0.000923
-1.163448 -0.940541 -0.000801
-1.231150 -1.451686 -0.000916
-1.207212 -1.257423 -0.000874
-1.220556 -1.362789 -0.000897
-1.240822 -1.541375 -0.000933
-1.110546 -0.563685 -0.000715
-1.164766 -0.947454 -0.000803
-1.132959 -0.284340 -0.000698
-1.188475 -1.109294 -0.000840
-1.123429 -0.656974 -0.000735
-1.263093 -1.747166 -0.000972
-1.153837 -0.500894 -0.000730
-1.205384 -1.239268 -0.000869
-1.203978 -1.229348 -0.000867
-1.203978 -1.229348 -0.000867
-1.153537 -0.496569 -0.000729
-1.136069 -0.319669 -0.000702
-1.236737 -1.495120 -0.000923
-1.236737 -1.495120 -0.000923
-1.191303 -1.130899 -0.000844
-1.163334 -0.934571 -0.000798
-1.242255 -1.551979 -0.000933
-1.203332 -1.221879 -0.000864
-1.151782 -0.475433 -0.000724
-1.151782 -0.475433 -0.000724
-1.133918 -0.286816 -0.000697
-1.150974 -0.455220 -0.000721
-1.131355 -0.256288 -0.000693
-1.137554 -0.330071 -0.000702
-1.137554 -0.330071 -0.000702
-1.164044 -0.936035 -0.000797
-1.113326 -0.579148 -0.000716
-1.151531 -0.470102 -0.000723
-1.138443 -0.335327 -0.000702
-1.231122 -1.440276 -0.000909
-1.152439 -0.476671 -0.000723
-1.154651 -0.496957 -0.000727
-1.164624 -0.938261 -0.000797
-1.262747 -1.735642 -0.000966
-1.207400 -1.246871 -0.000867
-1.134650 -0.286697 -0.000695
-1.134650 -0.286697 -0.000695
-1.165651 -0.943281 -0.000798
-1.152367 -0.472589 -0.000722
-1.136669 -0.310113 -0.000698
-1.136669 -0.310113 -0.000698
-1.139184 -0.339685 -0.000702
-1.162995 -0.923783 -0.000793
-1.236434 -1.484083 -0.000917
-1.244208 -1.564437 -0.000932
-1.134607 -0.282933 -0.000695
-1.134607 -0.282933 -0.000695
-1.191513 -1.122359 -0.000839
-1.154602 -0.493044 -0.000725
-1.223744 -1.377462 -0.000894
-1.223744 -1.377462 -0.000894
-1.142598 -0.376156 -0.000706
-1.111242 -0.551628 -0.000709
-1.134923 -0.284037 -0.000694
-1.140617 -0.354740 -0.000703
-1.200867 -1.192453 -0.000854
-1.152524 -0.469380 -0.000721
-1.193289 -1.134349 -0.000841
-1.154027 -0.483676 -0.000723
-1.154027 -0.483676 -0.000723
-1.153173 -0.475869 -0.000721
-1.256194 -1.670226 -0.000951
-1.154717 -0.487993 -0.000723
-1.196293 -1.155377 -0.000844
-1.135596 -0.285820 -0.000693
-1.154265 -0.483449 -0.000722
-1.241080 -1.525945 -0.000922
-1.155689 -0.495836 -0.000724
-1.154087 -0.479443 -0.000721
-1.154087 -0.479443 -0.000721
-1.153597 -0.475095 -0.000720
-1.265000 -1.743820 -0.000962
-1.111507 -0.543699 -0.000706
-1.142281 -0.364188 -0.000702
-1.155726 -0.492467 -0.000722
-1.152194 -0.456683 -0.000716
-1.241778 -1.528448 -0.000920
-1.220601 -1.340180 -0.000882
-1.236120 -1.471099 -0.000909
-1.142737 -0.363890 -0.000701
-1.154403 -0.475346 -0.000718
-1.197859 -1.159939 -0.000842
-1.193538 -1.126149 -0.000835
-1.242214 -1.529638 -0.000920
-1.254808 -1.649117 -0.000942
-1.262135 -1.713379 -0.000954
-1.112534 -0.543514 -0.000704
-1.243429 -1.540870 -0.000921
-1.261276 -1.704569 -0.000952
-1.267944 -1.768783 -0.000963
-1.193425 -1.121762 -0.000833
-1.125295 -0.639157 -0.000723
-1.201859 -1.185125 -0.000847
-1.112074 -0.537461 -0.000702
-1.209410 -1.241177 -0.000858
-1.238736 -1.484120 -0.000909
-1.199541 -1.166466 -0.000842
-1.260318 -1.693588 -0.000948
-1.143395 -0.359645 -0.000699
-1.143561 -0.359362 -0.000699
-1.155241 -0.473829 -0.000716
-1.113369 -0.542759 -0.000702
-1.194977 -1.128284 -0.000832
-1.198909 -1.158825 -0.000838
-1.213009 -1.267365 -0.000862
-1.144123 -0.363693 -0.000698
-1.114057 -0.545667 -0.000702
-1.159530 -0.872737 -0.000773
-1.112192 -0.525117 -0.000698
-1.156022 -0.473835 -0.000715
-1.293617 -1.979945 -0.000992
-1.208948 -1.230293 -0.000853
-1.199962 -1.162875 -0.000838
-1.199962 -1.162875 -0.000838
-1.145762 -0.375648 -0.000699
-1.194978 -1.123102 -0.000829
-1.200071 -1.162446 -0.000837
-1.223889 -1.353931 -0.000878
-1.223889 -1.353931 -0.000878
-1.145457 -0.365455 -0.000696
-1.205557 -1.193289 -0.000843
-1.209996 -1.234081 -0.000851
-1.214975 -1.272579 -0.000859
-1.222184 -1.334714 -0.000872
-1.136897 -0.134626 -0.000676
-1.193861 -1.103137 -0.000822
-1.218249 -1.299511 -0.000864
-1.166420 -0.911953 -0.000778
-1.239514 -1.477445 -0.000899
-1.134019 -0.054121 -0.000671
-1.221692 -1.326552 -0.000869
-1.209638 -1.223177 -0.000847
-1.192176 -1.087237 -0.000817
-1.192176 -1.087237 -0.000817
-1.202733 -1.164719 -0.000834
-1.195578 -1.114003 -0.000822
-1.153257 -0.431396 -0.000703
-1.220459 -1.313065 -0.000864
-1.241644 -1.489711 -0.000899
-1.158223 -0.473062 -0.000709
-1.211621 -1.231507 -0.000847
-1.206437 -1.190061 -0.000838
-1.208454 -1.204469 -0.000841
-1.235243 -1.432283 -0.000887
-1.222808 -1.331390 -0.000866
-1.223467 -1.335274 -0.000867
-1.158302 -0.470559 -0.000708
-1.203405 -1.163681 -0.000831
-1.218834 -1.293065 -0.000858
-1.218834 -1.293065 -0.000858
-1.233165 -1.410147 -0.000882
-1.146689 -0.347045 -0.000690
-1.147921 -0.365058 -0.000691
-1.158909 -0.470775 -0.000707
-1.159767 -0.478208 -0.000708
-1.240661 -1.473120 -0.000892
-1.167210 -0.901377 -0.000771
-1.146260 -0.306613 -0.000685
-1.219430 -1.293073 -0.000856
-1.160346 -0.482525 -0.000708
-1.160346 -0.482525 -0.000708
-1.159994 -0.478045 -0.000707
-1.237349 -1.444168 -0.000886
-1.160540 -0.481345 -0.000707
-1.161034 -0.484776 -0.000707
-1.238847 -1.451793 -0.000886
-1.159506 -0.466259 -0.000704
-1.161306 -0.482779 -0.000706
-1.167557 -0.895629 -0.000767
-1.219902 -1.289780 -0.000852
-1.224407 -1.329766 -0.000860
-1.244205 -1.500573 -0.000893
-1.241783 -1.474174 -0.000888
-1.241783 -1.474174 -0.000888
-1.148379 -0.316212 -0.000683
-1.160648 -0.472207 -0.000704
-1.250059 -1.557893 -0.000904
-1.158403 -0.446098 -0.000699
-1.159956 -0.460357 -0.000701
-1.213350 -1.228027 -0.000837
-1.161369 -0.474825 -0.000703
-1.148288 -0.306288 -0.000680
-1.235852 -1.416733 -0.000874
-1.162731 -0.485243 -0.000704
-1.237855 -1.432209 -0.000877
-1.149075 -0.311133 -0.000680
-1.161120 -0.467169 -0.000701
-1.161120 -0.467169 -0.000701
-1.161690 -0.473301 -0.000702
-1.161690 -0.473301 -0.000702
-1.241425 -1.462073 -0.000882
-1.151226 -0.364389 -0.000685
-1.146814 -0.705667 -0.000723
-1.146257 -0.700447 -0.000722
-1.236480 -1.417074 -0.000872
-1.148175 -0.712362 -0.000724
-1.159058 -0.438304 -0.000695
-1.148936 -0.302758 -0.000678
-1.161157 -0.461631 -0.000698
-1.217512 -1.250506 -0.000838
-1.148629 -0.299598 -0.000677
-1.148629 -0.299598 -0.000677
-1.216001 -1.238962 -0.000835
-1.150067 -0.342763 -0.000681
-1.160496 -0.451166 -0.000696
-1.148151 -0.278696 -0.000675
-1.159950 -0.444280 -0.000695
-1.223148 -1.301864 -0.000848
-1.234665 -1.398076 -0.000867
-1.240654 -1.447106 -0.000876
-1.162067 -0.464778 -0.000698
-1.149488 -0.303124 -0.000677
-1.196300 -1.072071 -0.000799
-1.242942 -1.463832 -0.000878
-1.227450 -1.333088 -0.000853
-1.222908 -1.295415 -0.000844
-1.149514 -0.286483 -0.000674
-1.233364 -1.380808 -0.000861
-1.148865 -0.276029 -0.000673
-1.222166 -1.283487 -0.000841
-1.149696 -0.294012 -0.000674
-1.234252 -1.388283 -0.000862
-1.160567 -0.439036 -0.000692
-1.162516 -0.460323 -0.000695
-1.140895 -0.076237 -0.000659
-1.148730 -0.270483 -0.000672
-1.163649 -0.470918 -0.000696
-1.152202 -0.350600 -0.000679
-1.164702 -0.479079 -0.000697
-1.164702 -0.479079 -0.000697
-1.140557 -0.057202 -0.000658
-1.140557 -0.057202 -0.000658
-1.164292 -0.473582 -0.000696
-1.149386 -0.273169 -0.000671
-1.165323 -0.482349 -0.000697
-1.240933 -1.435103 -0.000868
-1.149331 -0.268713 -0.000670
-1.153889 -0.363327 -0.000679
-1.164417 -0.470575 -0.000694
-1.218098 -1.238978 -0.000828
-1.150478 -0.277613 -0.000670
-1.163251 -0.456323 -0.000692
-1.162267 -0.443761 -0.000690
-1.248356 -1.510501 -0.000881
-1.150166 -0.271066 -0.000669
-1.151436 -0.298187 -0.000671
-1.165182 -0.471679 -0.000693
-1.241549 -1.433574 -0.000865
-1.217864 -1.233635 -0.000826
-1.220134 -1.251817 -0.000828
-1.165065 -0.464426 -0.000691
-1.240862 -1.416260 -0.000860
-1.149370 -0.687446 -0.000710
-1.152494 -0.285446 -0.000668
-1.154103 -0.344924 -0.000673
-1.216967 -1.217841 -0.000820
-1.248451 -1.500584 -0.000875
-1.217911 -1.225883 -0.000821
-1.148223 -0.671211 -0.000705
-1.247910 -1.490639 -0.000871
-1.245501 -1.458597 -0.000864
-1.247647 -1.487069 -0.000869
-1.247647 -1.487069 -0.000869
-1.149802 -0.680285 -0.000706
-1.212128 -1.167408 -0.000807
-1.226692 -1.294753 -0.000832
-1.249400 -1.502415 -0.000871
-1.220953 -1.245384 -0.000822
-1.210891 -1.156374 -0.000803
-1.170953 -0.860254 -0.000741
-1.170953 -0.860254 -0.000741
-1.209280 -1.141793 -0.000800
-1.209258 -1.141918 -0.000800
-1.249897 -1.501232 -0.000869
-1.155977 -0.318057 -0.000667
-1.230638 -1.324101 -0.000835
-1.156697 -0.327826 -0.000668
-1.247613 -1.474748 -0.000864
-1.156523 -0.347782 -0.000669
-1.226701 -1.288502 -0.000828
-1.155597 -0.311644 -0.000666
-1.227657 -1.294744 -0.000828
-1.209761 -1.139860 -0.000797
-1.171089 -0.853192 -0.000737
-1.171089 -0.853192 -0.000737
-1.214752 -1.177879 -0.000804
-1.250308 -1.496279 -0.000865
-1.154837 -0.285229 -0.000662
-1.157203 -0.323015 -0.000666
-1.225759 -1.276344 -0.000823
-1.225759 -1.276344 -0.000823
-1.211571 -1.149779 -0.000798
-1.239806 -1.377872 -0.000843
-1.156638 -0.313375 -0.000664
-1.157779 -0.352508 -0.000668
-1.209609 -1.132597 -0.000794
-1.157227 -0.318470 -0.000665
-1.153047 -0.249157 -0.000657
-1.157651 -0.345298 -0.000666
-1.156799 -0.307689 -0.000662
-1.157281 -0.314699 -0.000663
-1.171800 -0.848258 -0.000733
-1.246525 -1.444406 -0.000853
-1.246525 -1.444406 -0.000853
-1.228046 -1.287727 -0.000822
-1.158644 -0.326598 -0.000664
-1.224707 -1.256446 -0.000815
-1.211236 -1.136826 -0.000791
-1.215121 -1.167521 -0.000798
-1.200001 -1.040612 -0.000772
-1.225034 -1.256267 -0.000814
-1.225034 -1.256267 -0.000814
-1.159016 -0.349148 -0.000664
-1.210192 -1.125405 -0.000788
-1.154781 -0.250879 -0.000654
-1.159303 -0.343028 -0.000662
-1.225526 -1.255700 -0.000812
-1.157805 -0.302135 -0.000658
-1.211651 -1.133898 -0.000788
-1.160267 -0.327467 -0.000660
-1.155440 -0.247997 -0.000652
-1.160372 -0.350808 -0.000662
-1.156896 -0.279419 -0.000655
-1.156896 -0.279419 -0.000655
-1.221992 -1.220310 -0.000803
-1.200809 -1.036034 -0.000767
-1.150495 -0.077091 -0.000643
-1.162120 -0.372202 -0.000664
-1.223819 -1.235228 -0.000806
-1.225780 -1.251524 -0.000809
-1.222498 -1.222174 -0.000803
-1.224475 -1.238498 -0.000805
-1.212386 -1.135266 -0.000785
-1.157113 -0.251997 -0.000652
-1.222998 -1.224029 -0.000802
-1.156546 -0.244334 -0.000650
-1.162422 -0.368685 -0.000662
-1.162245 -0.364903 -0.000661
-1.211779 -1.127881 -0.000782
-1.222489 -1.217705 -0.000800
-1.214071 -1.142716 -0.000785
-1.162253 -0.361082 -0.000660
-1.224630 -1.233873 -0.000802
-1.221386 -1.205422 -0.000796
-1.223270 -1.221305 -0.000799
-1.163016 -0.367429 -0.000660
-1.202182 -1.034974 -0.000763
-1.152011 -0.074181 -0.000640
-1.212703 -1.132462 -0.000782
-1.220015 -1.190968 -0.000793
-1.220986 -1.197637 -0.000794
-1.242952 -1.351026 -0.000823
-1.219483 -1.182412 -0.000790
-1.158639 -0.275809 -0.000650
-1.223576 -1.216368 -0.000796
-1.222500 -1.207038 -0.000794
-1.222500 -1.207038 -0.000794
-1.240649 -1.316905 -0.000815
-1.210814 -1.106998 -0.000774
-1.216266 -1.152726 -0.000783
-1.293023 -1.847843 -0.000904
-1.168225 -0.413434 -0.000664
-1.213184 -1.127578 -0.000777
-1.218556 -1.169796 -0.000786
-1.159430 -0.286791 -0.000649
-1.158494 -0.234450 -0.000646
-1.244235 -1.354091 -0.000820
-1.163233 -0.346199 -0.000655
-1.222416 -1.198485 -0.000789
-1.220925 -1.182109 -0.000785
-1.227344 -1.236120 -0.000795
-1.163218 -0.325914 -0.000651
-1.209753 -1.086101 -0.000765
-1.209753 -1.086101 -0.000765
-1.212262 -1.107880 -0.000769
-1.228291 -1.241187 -0.000795
-1.161781 -0.703791 -0.000689
-1.225647 -1.213096 -0.000789
-1.163693 -0.323116 -0.000649
-1.163693 -0.323116 -0.000649
-1.164246 -0.336393 -0.000650
-1.221356 -1.176081 -0.000781
-1.163888 -0.714705 -0.000690
-1.162273 -0.299881 -0.000646
-1.225105 -1.203976 -0.000785
-1.220263 -1.163266 -0.000777
-1.212175 -1.097067 -0.000764
-1.212175 -1.097067 -0.000764
-1.163068 -0.303853 -0.000645
-1.162835 -0.300317 -0.000645
-1.163557 -0.309849 -0.000645
-1.213302 -1.102175 -0.000763
-1.213302 -1.102175 -0.000763
-1.165196 -0.325670 -0.000646
-1.219169 -1.148396 -0.000771
-1.226763 -1.209563 -0.000783
-1.164098 -0.301353 -0.000642
-1.156922 -0.068387 -0.000629
-1.213440 -1.094483 -0.000759
-1.162633 -0.279049 -0.000639
-1.232077 -1.248403 -0.000788
-1.164651 -0.302960 -0.000641
-1.216851 -1.120143 -0.000763
-1.230502 -1.233552 -0.000784
-1.231531 -1.240198 -0.000784
-1.231487 -1.240155 -0.000784
-1.231487 -1.240155 -0.000784
-1.218160 -1.127066 -0.000763
-1.163016 -0.265946 -0.000636
-1.218857 -1.128475 -0.000761
-1.217322 -1.115307 -0.000759
-1.217322 -1.115307 -0.000759
-1.214635 -1.092237 -0.000754
-1.219713 -1.133573 -0.000762
-1.164264 -0.272255 -0.000635
-1.297723 -1.878581 -0.000885
-1.208869 -1.014589 -0.000737
-1.165182 -0.272936 -0.000633
-1.217335 -1.104064 -0.000753
-1.235704 -1.259009 -0.000781
-1.237037 -1.265800 -0.000781
-1.208509 -1.001401 -0.000731
-1.212548 -1.040619 -0.000739
-1.209327 -1.008593 -0.000732
-1.209327 -1.008593 -0.000732
-1.164478 -0.647406 -0.000661
-1.227000 -1.126931 -0.000749
-1.164654 -0.641714 -0.000658
-1.165214 -0.638638 -0.000656
-1.217921 -1.049789 -0.000730
-1.245288 -1.056656 -0.000737
-1.219093 -1.057229 -0.000730
-1.165546 -0.627128 -0.000651
-1.245599 -1.052573 -0.000733
-1.165981 -0.621838 -0.000648
-1.172752 -0.250812 -0.000618
-1.168779 -0.639529 -0.000651
-1.173825 -0.255221 -0.000617
-1.169156 -0.633853 -0.000648
-1.166507 -0.612439 -0.000643
-1.167224 -0.614668 -0.000642
-1.156649 -0.525986 -0.000626
-1.175747 -0.247588 -0.000612
-1.173316 -0.208424 -0.000608
-1.175582 -0.239589 -0.000610
-1.176447 -0.249854 -0.000611
-1.175721 -0.232541 -0.000609
-1.174335 -0.211193 -0.000607
-1.172816 -0.637308 -0.000641
-1.177052 -0.250518 -0.000609
-1.174213 -0.196852 -0.000605
-1.176724 -0.242267 -0.000608
-1.176072 -0.230452 -0.000607
-1.176600 -0.238913 -0.000608
-1.175014 -0.212291 -0.000606
-1.175014 -0.212291 -0.000606
-1.177267 -0.243089 -0.000607
-1.174431 -0.186488 -0.000603
-1.175585 -0.210485 -0.000604
-1.175785 -0.214691 -0.000605
-1.177076 -0.235286 -0.000606
-1.174311 -0.176827 -0.000602
-1.176392 -0.219415 -0.000604
-1.176916 -0.225740 -0.000604
-1.171548 -0.611274 -0.000633
-1.176901 -0.214929 -0.000602
-1.179260 -0.248593 -0.000604
-1.177796 -0.213637 -0.000601
-1.186533 -0.719380 -0.000648
-1.178557 -0.219881 -0.000600
-1.166063 -0.543442 -0.000619
-1.156011 -0.372075 -0.000598
-1.154539 -0.334324 -0.000592
-1.202240 -0.849023 -0.000667
-1.154375 -0.326953 -0.000591
-1.201888 -0.844160 -0.000665
-1.172744 -0.585817 -0.000622
-1.175670 -0.620938 -0.000626
-1.159724 -0.460285 -0.000602
-1.159724 -0.460285 -0.000602
-1.159724 -0.460285 -0.000602
-1.171541 -0.550793 -0.000616
-1.176927 -0.629306 -0.000626
-1.198213 -0.796787 -0.000655
-1.178268 -0.632031 -0.000625
-1.199381 -0.799651 -0.000653
-1.193108 -0.741040 -0.000643
-1.189046 -0.701202 -0.000635
-1.198563 -0.785060 -0.000649
-1.156434 -0.280703 -0.000581
-1.176725 -0.607148 -0.000618
-1.176725 -0.607148 -0.000618
-1.178781 -0.624120 -0.000620
-1.195100 -0.746524 -0.000641
-1.207126 -0.855281 -0.000658
-1.178416 -0.620878 -0.000619
-1.199571 -0.785139 -0.000646
-1.177435 -0.609618 -0.000617
-1.232095 -1.062047 -0.000693
-1.207686 -0.857338 -0.000658
-1.178690 -0.615858 -0.000617
-1.295912 -1.703211 -0.000790
-1.179550 -0.620527 -0.000617
-1.205525 -0.830356 -0.000651
-1.159827 -0.294402 -0.000579
-1.213004 -0.887208 -0.000658
-1.295831 -1.687321 -0.000783
-1.293334 -1.652258 -0.000777
-1.152744 -0.126721 -0.000565
-1.164644 -0.417967 -0.000586
-1.217077 -0.914601 -0.000660
-1.175636 -0.005498 -0.000572
-1.296984 -1.695597 -0.000779
-1.176179 -0.559036 -0.000601
-1.176632 -0.024902 -0.000571
-1.176468 -0.555879 -0.000599
-1.182760 -0.609225 -0.000607
-1.178980 -0.569356 -0.000600
-1.296368 -1.670415 -0.000768
-1.296089 -1.660021 -0.000764
-1.179874 -0.008918 -0.000564
-1.186920 -0.614409 -0.000601
-1.179978 -0.006092 -0.000563
-1.180872 -0.031749 -0.000563
-1.180413 -0.005966 -0.000562
-1.189704 -0.630375 -0.000602
-1.295702 -1.639279 -0.000756
-1.188385 -0.193926 -0.000569
-1.197362 -0.663989 -0.000606
-1.190786 -0.227786 -0.000569
-1.239148 -1.060991 -0.000667
-1.236418 -1.032857 -0.000661
-1.235600 -1.022095 -0.000658
-1.235600 -1.022095 -0.000658
-1.236080 -1.024382 -0.000658
-1.236080 -1.024382 -0.000658
-1.236547 -1.024534 -0.000657
-1.186213 -0.565745 -0.000586
-1.296513 -1.627849 -0.000744
-1.239453 -1.045218 -0.000657
-1.240591 -1.049699 -0.000656
-1.240591 -1.049699 -0.000656
-1.236469 -1.009007 -0.000650
-1.194289 -0.617102 -0.000589
-1.235926 -1.000000 -0.000647
-1.263903 -1.265068 -0.000688
-1.263682 -1.259478 -0.000686
-1.239726 -1.033030 -0.000651
-1.235522 -0.984749 -0.000644
-1.265009 -1.271318 -0.000686
-1.240198 -1.031229 -0.000649
-1.244861 -1.074677 -0.000655
-1.244861 -1.074677 -0.000655
-1.238403 -1.009898 -0.000645
-1.238403 -1.009898 -0.000645
-1.238203 -1.002328 -0.000642
-1.205757 -0.673463 -0.000593
-1.257955 -1.183080 -0.000666
-1.263732 -1.238609 -0.000674
-1.250968 -1.111907 -0.000653
-1.250968 -1.111907 -0.000653
-1.249512 -1.096731 -0.000650
-1.266119 -1.257773 -0.000674
-1.266119 -1.257773 -0.000674
-1.251140 -1.111585 -0.000652
-1.245327 -1.045066 -0.000642
-1.198335 -0.088277 -0.000546
-1.249116 -1.087407 -0.000648
-1.189954 -0.510427 -0.000564
-1.237069 -0.962683 -0.000629
-1.253243 -1.125109 -0.000653
-1.201172 -0.249172 -0.000551
-1.201172 -0.249172 -0.000551
-1.250546 -1.097650 -0.000648
-1.190309 -0.507762 -0.000563
-1.263586 -1.222690 -0.000666
-1.262390 -1.209437 -0.000664
-1.199099 -0.087497 -0.000545
-1.216740 -0.733937 -0.000594
-1.198743 -0.068410 -0.000544
-1.198743 -0.068410 -0.000544
-1.254122 -1.124256 -0.000649
-1.255210 -1.137077 -0.000651
-1.251738 -1.098577 -0.000645
-1.251100 -1.090829 -0.000643
-1.253109 -1.108109 -0.000643
-1.207117 -0.309875 -0.000550
-1.200514 -0.058587 -0.000539
-1.205548 -0.278612 -0.000547
-1.262499 -1.191246 -0.000653
-1.251302 -1.077085 -0.000637
-1.260028 -1.165141 -0.000648
-1.208017 -0.308808 -0.000548
-1.251050 -1.067358 -0.000633
-1.225516 -0.534406 -0.000567
-1.258327 -1.112352 -0.000637
-1.204211 -0.080529 -0.000533
-1.236396 -0.878940 -0.000601
-1.224671 -0.501627 -0.000560
-1.276416 -1.316990 -0.000661
-1.236236 -0.871126 -0.000599
-1.236236 -0.871126 -0.000599
-1.235034 -0.857431 -0.000596
-1.227329 -0.533405 -0.000562
-1.275642 -1.303304 -0.000658
-1.276241 -1.309758 -0.000658
-1.273212 -1.273178 -0.000653
-1.205083 -0.068758 -0.000530
-1.205083 -0.068758 -0.000530
-1.276507 -1.305712 -0.000656
-1.238164 -0.873219 -0.000594
-1.236674 -0.855832 -0.000591
-1.236674 -0.855832 -0.000591
-1.236674 -0.855832 -0.000591
-1.293375 -1.459037 -0.000673
-1.274710 -1.274689 -0.000648
-1.237859 -0.863040 -0.000591
-1.204379 -0.138029 -0.000526
-1.294009 -1.464192 -0.000672
-1.274857 -1.274109 -0.000647
-1.206175 -0.044245 -0.000524
-1.237210 -0.852643 -0.000589
-1.275207 -1.274967 -0.000646
-1.275012 -1.269166 -0.000645
-1.238348 -0.862130 -0.000589
-1.294194 -1.460692 -0.000670
-1.207040 -0.056876 -0.000523
-1.271524 -1.219016 -0.000637
-1.271524 -1.219016 -0.000637
-1.239129 -0.853816 -0.000585
-1.208795 -0.066431 -0.000520
-1.282603 -1.324216 -0.000646
-1.215855 -0.298262 -0.000528
-1.275537 -1.248896 -0.000635
-1.216140 -0.296241 -0.000527
-1.217161 -0.303699 -0.000526
-1.273072 -1.211848 -0.000627
-1.210385 -0.054870 -0.000516
-1.232095 -0.517662 -0.000544
-1.216509 -0.286736 -0.000524
-1.216509 -0.286736 -0.000524
-1.278097 -1.262130 -0.000632
-1.210434 -0.161831 -0.000517
-1.217665 -0.301962 -0.000525
-1.296607 -1.457778 -0.000656
-1.208729 -0.106903 -0.000513
-1.272804 -1.200101 -0.000621
-1.217954 -0.292375 -0.000522
-1.217153 -0.275449 -0.000521
-1.216296 -0.259270 -0.000520
-1.254806 -0.773082 -0.000569
-1.211998 -0.049718 -0.000512
-1.275287 -1.220341 -0.000622
-1.217091 -0.265661 -0.000519
-1.217091 -0.265661 -0.000519
-1.276069 -1.229658 -0.000623
-1.272873 -1.194921 -0.000618
-1.217377 -0.269024 -0.000519
-1.217089 -0.262081 -0.000518
-1.217089 -0.262081 -0.000518
-1.216763 -0.255148 -0.000518
-1.282525 -1.297554 -0.000631
-1.275830 -1.223997 -0.000621
-1.275830 -1.223997 -0.000621
-1.252437 -0.742130 -0.000563
-1.277346 -1.237629 -0.000622
-1.280000 -1.266336 -0.000626
-1.276235 -1.224839 -0.000620
-1.304499 -1.571294 -0.000663
-1.251764 -0.974994 -0.000586
-1.252190 -0.978309 -0.000586
-1.216852 -0.237545 -0.000514
-1.277696 -1.235221 -0.000620
-1.216215 -0.223190 -0.000513
-1.216215 -0.223190 -0.000513
-1.216679 -0.231155 -0.000514
-1.208242 -0.004357 -0.000505
-1.275205 -1.206612 -0.000615
-1.217134 -0.232436 -0.000513
-1.216652 -0.221410 -0.000512
-1.216975 -0.227138 -0.000512
-1.282080 -1.277955 -0.000623
-1.217691 -0.233285 -0.000512
-1.217691 -0.233285 -0.000512
-1.209054 -0.002782 -0.000504
-1.217983 -0.237047 -0.000512
-1.217478 -0.225919 -0.000511
-1.274851 -1.200305 -0.000612
-1.221161 -0.292751 -0.000515
-1.216552 -0.192617 -0.000509
-1.209441 -0.004598 -0.000503
-1.253531 -0.976322 -0.000581
-1.217737 -0.221645 -0.000510
-1.218516 -0.236483 -0.000510
-1.218022 -0.225608 -0.000510
-1.218022 -0.225608 -0.000510
-1.218208 -0.228999 -0.000510
-1.239275 -0.551118 -0.000536
-1.210336 -0.004806 -0.000501
-1.254898 -0.984410 -0.000580
-1.254425 -0.977653 -0.000579
-1.219306 -0.236374 -0.000509
-1.218558 -0.221405 -0.000508
-1.219074 -0.228564 -0.000508
-1.218695 -0.220106 -0.000507
-1.218869 -0.222918 -0.000507
-1.258751 -0.770024 -0.000557
-1.219381 -0.225689 -0.000507
-1.212762 -0.037412 -0.000497
-1.219158 -0.195018 -0.000502
-1.224258 -0.289242 -0.000507
-1.260319 -0.781152 -0.000553
-1.218965 -0.069274 -0.000497
-1.262631 -0.804013 -0.000554
-1.263509 -0.815063 -0.000556
-1.263858 -0.817819 -0.000556
-1.263506 -0.809790 -0.000554
-1.263106 -0.802071 -0.000553
-1.232059 -0.356618 -0.000509
-1.232059 -0.356618 -0.000509
-1.293015 -1.348507 -0.000615
-1.298965 -1.422555 -0.000624
-1.292017 -1.333191 -0.000612
-1.292841 -1.342139 -0.000613
-1.233255 -0.366754 -0.000508
-1.243098 -0.540450 -0.000522
-1.259803 -0.993906 -0.000568
-1.250485 -0.631376 -0.000531
-1.222004 -0.096198 -0.000493
-1.300961 -1.433676 -0.000622
-1.259004 -0.980849 -0.000565
-1.221146 -0.058054 -0.000492
-1.258774 -0.976640 -0.000564
-1.276595 -1.154577 -0.000587
-1.292087 -1.324054 -0.000607
-1.238844 -0.464155 -0.000513
-1.222083 -0.083251 -0.000492
-1.223061 -0.203963 -0.000495
-1.234743 -0.406385 -0.000508
-1.233524 -0.357582 -0.000504
-1.259447 -0.980021 -0.000564
-1.259447 -0.980021 -0.000564
-1.223168 -0.200316 -0.000494
-1.299004 -1.409843 -0.000616
-1.260956 -0.996337 -0.000565
-1.260703 -0.990315 -0.000564
-1.245677 -0.556625 -0.000520
-1.265224 -0.802783 -0.000545
-1.234770 -0.368024 -0.000504
-1.222727 -0.070112 -0.000489
-1.222727 -0.070112 -0.000489
-1.261548 -0.996001 -0.000563
-1.228056 -0.277643 -0.000496
-1.261409 -0.992324 -0.000562
-1.292269 -1.317336 -0.000603
-1.276362 -1.140042 -0.000581
-1.299185 -1.402394 -0.000612
-1.276914 -1.146112 -0.000581
-1.258767 -0.958040 -0.000557
-1.259725 -0.967400 -0.000558
-1.224956 -0.112006 -0.000488
-1.262150 -0.994876 -0.000561
-1.239129 -0.436432 -0.000506
-1.239337 -0.442850 -0.000506
-1.261409 -0.983879 -0.000559
-1.235671 -0.366065 -0.000501
-1.266426 -0.803896 -0.000542
-1.229146 -0.274477 -0.000493
-1.229612 -0.281348 -0.000493
-1.262867 -0.991840 -0.000557
-1.292452 -1.305092 -0.000595
-1.280835 -1.173714 -0.000579
-1.225812 -0.096060 -0.000485
-1.230307 -0.277098 -0.000491
-1.230307 -0.277098 -0.000491
-1.225829 -0.091650 -0.000484
-1.281749 -1.182294 -0.000580
-1.240161 -0.431823 -0.000502
-1.240514 -0.434589 -0.000502
-1.261937 -0.973103 -0.000553
-1.270106 -0.835384 -0.000541
-1.259245 -0.939559 -0.000549
-1.230720 -0.275928 -0.000490
-1.266528 -0.786120 -0.000535
-1.230606 -0.269355 -0.000489
-1.263906 -0.991973 -0.000554
-1.226303 -0.085736 -0.000482
-1.230377 -0.262314 -0.000488
-1.228958 -0.233349 -0.000487
-1.266542 -1.021442 -0.000558
-1.274062 -1.093727 -0.000566
-1.281495 -1.171998 -0.000576
-1.273986 -1.093596 -0.000566
-1.291639 -1.285537 -0.000589
-1.226200 -0.065700 -0.000481
-1.229823 -0.240568 -0.000486
-1.229054 -0.222368 -0.000485
-1.267033 -1.020251 -0.000556
-1.267033 -1.020251 -0.000556
-1.230641 -0.250579 -0.000486
-1.268658 -1.037002 -0.000557
-1.230485 -0.245759 -0.000485
-1.230485 -0.245759 -0.000485
-1.264273 -0.985169 -0.000551
-1.265159 -0.995167 -0.000552
-1.298216 -1.360766 -0.000594
-1.227528 -0.076706 -0.000479
-1.238442 -0.351750 -0.000491
-1.253240 -0.595517 -0.000511
-1.276767 -1.112643 -0.000565
-1.263692 -0.970021 -0.000547
-1.238030 -0.341190 -0.000490
-1.242403 -0.431137 -0.000496
-1.241262 -0.414301 -0.000495
-1.265402 -0.989867 -0.000549
-1.265402 -0.989867 -0.000549
-1.242263 -0.425874 -0.000495
-1.241953 -0.420704 -0.000495
-1.241953 -0.420704 -0.000495
-1.231681 -0.249663 -0.000483
-1.231681 -0.249663 -0.000483
-1.231681 -0.249663 -0.000483
-1.298279 -1.355651 -0.000592
-1.298279 -1.355651 -0.000592
-1.269709 -1.037599 -0.000554
-1.262977 -0.954049 -0.000544
-1.267175 -1.005989 -0.000549
-1.243294 -0.433965 -0.000494
-1.280605 -1.146477 -0.000566
-1.242543 -0.419991 -0.000493
-1.262275 -0.936994 -0.000540
-1.304693 -1.428439 -0.000598
-1.269840 -1.030555 -0.000551
-1.254306 -0.592978 -0.000507
-1.253829 -0.586700 -0.000506
-1.256394 -0.620262 -0.000510
-1.256394 -0.620262 -0.000510
-1.255362 -0.606070 -0.000508
-1.255362 -0.606070 -0.000508
-1.242182 -0.405927 -0.000491
-1.255124 -0.601251 -0.000507
-1.254645 -0.592693 -0.000506
-1.230016 -0.089070 -0.000474
-1.271903 -1.048751 -0.000551
-1.271903 -1.048751 -0.000551
-1.281253 -1.146788 -0.000563
-1.259711 -0.657601 -0.000512
-1.254975 -0.593528 -0.000505
-1.268647 -1.008178 -0.000546
-1.268647 -1.008178 -0.000546
-1.272792 -1.057313 -0.000552
-1.254559 -0.587320 -0.000505
-1.254959 -0.591147 -0.000505
-1.269577 -0.783656 -0.000524
-1.240507 -0.337583 -0.000484
-1.275082 -1.079278 -0.000553
-1.233751 -0.251043 -0.000478
-1.233751 -0.251043 -0.000478
-1.255309 -0.592191 -0.000504
-1.266252 -0.971960 -0.000540
-1.230778 -0.092830 -0.000473
-1.273249 -1.057440 -0.000550
-1.281093 -1.140721 -0.000560
-1.270905 -1.028955 -0.000547
-1.243566 -0.406795 -0.000488
-1.235048 -0.272810 -0.000479
-1.241373 -0.349457 -0.000484
-1.255123 -0.586371 -0.000503
-1.240491 -0.331646 -0.000483
-1.272226 -1.041634 -0.000547
-1.244902 -0.427359 -0.000488
-1.255569 -0.587110 -0.000502
-1.272788 -1.043202 -0.000546
-1.271204 -1.024781 -0.000544
-1.232799 -0.160654 -0.000473
-1.235862 -0.272127 -0.000477
-1.230248 -0.041039 -0.000470
-1.269267 -0.764567 -0.000518
-1.241507 -0.339852 -0.000481
-1.234799 -0.245935 -0.000475
-1.272598 -1.036404 -0.000544
-1.234806 -0.243290 -0.000474
-1.268814 -0.984036 -0.000538
-1.231245 -0.059231 -0.000469
-1.244584 -0.396546 -0.000484
-1.232188 -0.094740 -0.000469
-1.244496 -0.396242 -0.000484
-1.231334 -0.051809 -0.000468
-1.242514 -0.340954 -0.000479
-1.243011 -0.350046 -0.000480
-1.242809 -0.344390 -0.000479
-1.276251 -1.068156 -0.000545
-1.235908 -0.247598 -0.000472
-1.232130 -0.059434 -0.000467
-1.242121 -0.323503 -0.000477
-1.279086 -1.100081 -0.000548
-1.279086 -1.100081 -0.000548
-1.243250 -0.348056 -0.000478
-1.243040 -0.341015 -0.000478
-1.243585 -0.349096 -0.000478
-1.242582 -0.329724 -0.000477
-1.276281 -1.062532 -0.000543
-1.232765 -0.067915 -0.000466
-1.278987 -1.094756 -0.000546
-1.272749 -0.792134 -0.000516
-1.298291 -1.307362 -0.000570
-1.243854 -0.346464 -0.000477
-1.288666 -1.202952 -0.000558
-1.247163 -0.417366 -0.000481
-1.276877 -1.064510 -0.000541
-1.243490 -0.333283 -0.000475
-1.276559 -1.058814 -0.000540
-1.277690 -1.072203 -0.000542
-1.275705 -0.828754 -0.000517
-1.275705 -0.828754 -0.000517
-1.233249 -0.041348 -0.000463
-1.284988 -1.151823 -0.000549
-1.244662 -0.340289 -0.000474
-1.284369 -1.142010 -0.000547
-1.245034 -0.343955 -0.000474
-1.239610 -0.278099 -0.000468
-1.234474 -0.056555 -0.000461
-1.234567 -0.053819 -0.000461
-1.237193 -0.213916 -0.000464
-1.235665 -0.092373 -0.000461
-1.245181 -0.334135 -0.000471
-1.248149 -0.403702 -0.000475
-1.248847 -0.416777 -0.000475
-1.239939 -0.263625 -0.000465
-1.272735 -0.762732 -0.000506
-1.249235 -0.422673 -0.000475
-1.240444 -0.265744 -0.000465
-1.273068 -0.760765 -0.000504
-1.237265 -0.115398 -0.000459
-1.245158 -0.319119 -0.000468
-1.248461 -0.398898 -0.000472
-1.248367 -0.397430 -0.000472
-1.260672 -0.587760 -0.000487
-1.273233 -0.759408 -0.000503
-1.277300 -0.818227 -0.000509
-1.239815 -0.173082 -0.000460
-1.255913 -0.518956 -0.000481
-1.238083 -0.116635 -0.000458
-1.247628 -0.357721 -0.000468
-1.238161 -0.110657 -0.000457
-1.237645 -0.094248 -0.000456
