ply
format ascii 1.0
element vertex 1773
property float x
property float y
property float z
end_header
2.112700 0.755064 0.002016
2.132885 0.874906 0.002017
2.333978 2.155243 0.002161
2.339671 2.263203 0.002160
2.132102 0.864485 0.002012
2.371993 2.751021 0.002176
2.388491 3.175863 0.002168
2.388491 3.175863 0.002168
2.348317 2.411111 0.002148
2.137551 0.891715 0.002004
2.126689 0.826464 0.002001
2.130127 0.845030 0.001999
2.125480 0.815167 0.001998
2.134062 0.866886 0.001998
2.134062 0.866886 0.001998
2.132231 0.855102 0.001996
2.137360 0.885389 0.001996
2.368623 2.713708 0.002145
2.326407 2.045654 0.002127
2.119718 0.773822 0.001987
2.367523 2.694223 0.002140
2.384183 3.080287 0.002136
2.113857 0.734283 0.001981
2.340524 2.287867 0.002110
2.367697 2.693458 0.002121
2.361436 2.579493 0.002114
2.382238 3.032700 0.002113
2.366308 2.667642 0.002113
2.130042 0.819355 0.001964
2.381488 3.009313 0.002103
2.339357 2.242922 0.002090
2.359818 2.553252 0.002100
2.360088 2.558611 0.002099
2.324959 2.022904 0.002084
2.363086 2.606661 0.002091
2.365364 2.649760 0.002090
2.320607 1.972423 0.002068
2.148180 0.914024 0.001944
2.151298 0.932968 0.001944
2.322889 1.997912 0.002067
2.357302 2.511799 0.002077
2.358894 2.530490 0.002077
2.324710 2.017833 0.002060
2.130680 0.794757 0.001929
2.321348 1.975384 0.002047
2.178621 1.097479 0.001928
2.119740 0.722011 0.001924
2.117761 0.708168 0.001922
2.134640 0.812443 0.001921
2.322752 1.990261 0.002038
2.363726 2.614918 0.002053
2.136524 0.822146 0.001919
2.283302 1.544887 0.002024
2.120324 0.715815 0.001912
2.114675 0.683358 0.001909
2.348501 2.399776 0.002027
2.348501 2.399776 0.002027
2.320061 1.959021 0.002021
2.362739 2.600327 0.002035
2.362739 2.600327 0.002035
2.346459 2.362191 0.002019
2.135346 0.804826 0.001901
2.348119 2.391408 0.002009
2.120165 0.701040 0.001894
2.131000 0.767429 0.001894
2.319479 1.940672 0.002000
2.119995 0.687920 0.001883
2.122854 0.706425 0.001883
2.132392 0.764036 0.001881
2.337439 2.232698 0.001985
2.114872 0.652556 0.001879
2.347001 2.370182 0.001985
2.124237 0.706418 0.001873
2.130082 0.742093 0.001872
2.120127 0.670230 0.001863
2.351489 2.399668 0.001975
2.169681 0.990199 0.001861
2.179582 1.051050 0.001855
2.170345 0.987424 0.001853
2.329093 2.064357 0.001951
2.150631 0.853693 0.001848
2.120719 0.659039 0.001848
2.120719 0.659039 0.001848
2.172010 0.993695 0.001846
2.170400 0.975471 0.001837
2.173691 0.996051 0.001834
2.131082 0.713677 0.001834
2.133262 0.729387 0.001834
2.135280 0.741194 0.001833
2.092655 0.507312 0.001812
2.324380 1.988949 0.001893
2.325913 2.014989 0.001885
2.342381 2.281622 0.001881
2.315221 1.855614 0.001867
2.276318 1.435811 0.001853
2.313432 1.831687 0.001862
2.351587 2.381925 0.001856
2.349775 2.353269 0.001854
2.351127 2.368326 0.001854
2.337754 2.196218 0.001844
2.337754 2.196218 0.001844
2.350437 2.357867 0.001848
2.322123 1.946285 0.001839
2.390224 3.130161 0.001852
2.365339 2.740028 0.001820
2.349008 2.333320 0.001835
2.077850 0.270110 0.001747
2.347248 2.304324 0.001833
2.349581 2.344000 0.001833
2.309029 1.767424 0.001825
2.091130 0.379090 0.001737
2.348384 2.320174 0.001823
2.321193 1.928270 0.001817
2.090740 0.369729 0.001735
2.323674 1.960181 0.001814
2.086294 0.326289 0.001732
2.321920 1.935617 0.001811
2.317491 1.876376 0.001806
2.081523 0.267272 0.001729
2.321903 1.932684 0.001804
2.311629 1.793617 0.001802
2.319741 1.904092 0.001801
2.263137 1.303025 0.001784
2.321234 1.921844 0.001797
2.316554 1.860454 0.001793
2.306610 1.728894 0.001792
2.317362 1.870187 0.001789
2.317362 1.870187 0.001789
2.320912 1.914984 0.001788
2.079529 0.199312 0.001712
2.318416 1.881022 0.001782
2.320136 1.901448 0.001779
2.171725 0.931075 0.001695
2.107165 0.462859 0.001703
2.113137 0.508790 0.001701
2.318169 1.881465 0.001776
2.337939 2.151116 0.001779
2.317474 1.865346 0.001775
2.320158 1.901189 0.001774
2.320158 1.901189 0.001774
2.351278 2.346471 0.001782
2.318216 1.876568 0.001771
2.317761 1.867243 0.001770
2.340795 2.188570 0.001774
2.319507 1.890090 0.001769
2.316438 1.850377 0.001768
2.114307 0.506328 0.001694
2.077248 0.118311 0.001699
2.316840 1.855643 0.001766
2.318056 1.869797 0.001764
2.319279 1.885653 0.001763
2.319279 1.885653 0.001763
2.319279 1.885653 0.001763
2.329135 2.021126 0.001763
2.110780 0.472363 0.001690
2.319962 1.895678 0.001762
2.317037 1.856348 0.001761
2.336823 2.133765 0.001763
2.076540 0.063585 0.001691
2.081630 0.166032 0.001691
2.319860 1.889842 0.001755
2.319262 1.882037 0.001753
2.319964 1.892741 0.001752
2.318431 1.868729 0.001751
2.318860 1.875680 0.001748
2.317255 1.853495 0.001747
2.317636 1.857853 0.001747
2.318266 1.866372 0.001745
2.347681 2.280530 0.001751
2.331519 2.052869 0.001745
2.319034 1.875422 0.001742
2.315830 1.834156 0.001741
2.315830 1.834156 0.001741
2.081159 0.091662 0.001676
2.336060 2.110828 0.001739
2.319214 1.874578 0.001736
2.084837 0.151896 0.001673
2.301693 1.652187 0.001734
2.301693 1.652187 0.001734
2.348694 2.290542 0.001742
2.316480 1.839198 0.001734
2.317885 1.856807 0.001732
2.315249 1.823274 0.001732
2.332008 2.055318 0.001734
2.329747 2.023296 0.001733
2.086521 0.171171 0.001670
2.319210 1.875091 0.001732
2.319210 1.875091 0.001732
2.335162 2.091957 0.001731
2.348242 2.283709 0.001736
2.336128 2.107781 0.001731
2.318466 1.863154 0.001726
2.185205 0.984574 0.001649
2.314841 1.814937 0.001724
2.316578 1.836221 0.001725
2.330831 2.036823 0.001725
2.317813 1.852856 0.001723
2.317813 1.852856 0.001723
2.333548 2.071322 0.001723
2.299477 1.621344 0.001719
2.299477 1.621344 0.001719
2.345392 2.247856 0.001725
2.329132 2.011293 0.001720
2.184367 0.970635 0.001642
2.314131 1.802097 0.001714
2.315974 1.825142 0.001713
2.099408 0.290436 0.001652
2.313293 1.790954 0.001709
2.316309 1.830142 0.001710
2.339519 2.151666 0.001710
2.315306 1.814247 0.001705
2.315901 1.821611 0.001700
2.314707 1.804868 0.001699
2.312063 1.771638 0.001698
2.315244 1.810757 0.001698
2.314180 1.796914 0.001697
2.312894 1.780955 0.001696
2.332403 2.043826 0.001692
2.311947 1.766557 0.001689
2.312516 1.773883 0.001689
2.314360 1.795942 0.001689
2.314360 1.795942 0.001689
2.162791 0.782708 0.001623
2.313421 1.782991 0.001687
2.313421 1.782991 0.001687
2.330015 2.011104 0.001687
2.314306 1.793047 0.001683
2.327389 1.971913 0.001681
2.311855 1.762516 0.001680
2.278094 1.382153 0.001676
2.326362 1.958035 0.001679
2.313556 1.780523 0.001676
2.329869 2.003048 0.001676
2.338136 2.124907 0.001677
2.314052 1.785950 0.001675
2.327234 1.967480 0.001674
2.320775 1.876142 0.001672
2.311716 1.756365 0.001671
2.313685 1.781959 0.001668
2.094795 0.050334 0.001620
2.329549 1.993367 0.001669
2.340150 2.148641 0.001667
2.338614 2.121890 0.001664
2.374758 2.765309 0.001670
2.312500 1.761776 0.001661
2.340569 2.153141 0.001664
2.341995 2.170358 0.001662
2.375373 2.766641 0.001663
2.339489 2.133694 0.001656
2.275444 1.342728 0.001646
2.317004 1.814783 0.001646
2.253425 1.143879 0.001638
2.312092 1.749326 0.001641
2.315001 1.788505 0.001641
2.321142 1.869149 0.001639
2.362042 2.521966 0.001641
2.373317 2.722672 0.001642
2.267709 1.264951 0.001630
2.296370 1.555212 0.001633
2.313890 1.769845 0.001632
2.369073 2.640150 0.001634
2.337288 2.091909 0.001628
2.338538 2.108353 0.001627
2.295280 1.543477 0.001620
2.363485 2.537804 0.001624
2.369726 2.654113 0.001625
2.372102 2.690359 0.001621
2.367335 2.601603 0.001615
2.327698 1.942272 0.001611
2.370108 2.647826 0.001615
2.334402 2.036432 0.001609
2.301390 1.604371 0.001605
2.326069 1.918170 0.001606
2.369199 2.638387 0.001610
2.116352 0.261750 0.001566
2.333648 2.025087 0.001605
2.366861 2.589581 0.001607
2.326950 1.928225 0.001604
2.325815 1.912340 0.001603
2.365769 2.569747 0.001605
2.300326 1.590294 0.001598
2.321377 1.846843 0.001593
2.319949 1.826766 0.001589
2.354525 2.419412 0.001580
2.319444 1.819130 0.001587
2.347727 2.283440 0.001582
2.315603 1.779051 0.001584
2.366051 2.572453 0.001587
2.318781 1.807869 0.001579
2.333235 1.999293 0.001581
2.251180 1.079408 0.001575
2.354095 2.405011 0.001568
2.314635 1.756270 0.001575
2.289657 1.455953 0.001570
2.317774 1.789671 0.001571
2.191933 0.855758 0.001526
2.193288 0.866881 0.001526
2.311953 1.719121 0.001566
2.146240 0.465642 0.001533
2.318044 1.791352 0.001566
2.197076 0.894834 0.001521
2.197350 0.894882 0.001521
2.145192 0.450829 0.001530
2.117366 0.057346 0.001535
2.316196 1.767722 0.001563
2.338216 2.076801 0.001564
2.116821 0.031358 0.001534
2.311049 1.707023 0.001561
2.215117 0.653471 0.001571
2.312762 1.727806 0.001560
2.313166 1.733492 0.001557
2.329049 1.924258 0.001556
2.352955 2.373378 0.001546
2.311289 1.706192 0.001550
2.258233 1.124225 0.001549
2.311908 1.712705 0.001547
2.311908 1.712705 0.001547
2.364420 2.528040 0.001547
2.364420 2.528040 0.001547
2.312608 1.719318 0.001544
2.146891 0.438479 0.001515
2.351791 2.348815 0.001537
2.311959 1.711323 0.001542
2.327725 1.897558 0.001544
2.352885 2.363710 0.001533
2.127887 0.229334 0.001513
2.283400 1.371097 0.001539
2.283400 1.371097 0.001539
2.350523 2.323668 0.001529
2.284245 1.381481 0.001532
2.352217 2.346424 0.001524
2.328488 1.900816 0.001530
2.295951 1.507603 0.001524
2.123779 0.027887 0.001502
2.326698 1.875393 0.001527
2.310612 1.682920 0.001521
2.310612 1.682920 0.001521
2.331220 1.936893 0.001524
2.362983 2.488298 0.001521
2.309010 1.656374 0.001516
2.324283 1.837651 0.001518
2.326778 1.869335 0.001513
2.326778 1.869335 0.001513
2.340641 2.064342 0.001514
2.308653 1.649702 0.001509
2.129518 0.204909 0.001485
2.311056 1.673172 0.001508
2.128423 0.185180 0.001484
2.127428 0.163223 0.001485
2.133976 0.239350 0.001485
2.328533 1.890619 0.001507
2.328533 1.890619 0.001507
2.326871 1.866820 0.001506
2.130624 0.204801 0.001480
2.310105 1.657439 0.001502
2.311341 1.669449 0.001501
2.306581 1.617751 0.001498
2.310691 1.661855 0.001499
2.324867 1.837718 0.001501
2.327101 1.867217 0.001501
2.276998 1.274703 0.001498
2.308184 1.635168 0.001496
2.131623 0.202809 0.001474
2.131623 0.202809 0.001474
2.325459 1.843537 0.001497
2.311208 1.665148 0.001494
2.328939 1.891970 0.001496
2.131735 0.190243 0.001469
2.133140 0.205724 0.001468
2.326652 1.856675 0.001491
2.326652 1.856675 0.001491
2.301324 1.557472 0.001486
2.301324 1.557472 0.001486
2.328779 1.886665 0.001490
2.359171 2.409415 0.001486
2.311759 1.665906 0.001486
2.325919 1.845064 0.001488
2.324914 1.830738 0.001487
2.300453 1.549396 0.001482
2.301830 1.565080 0.001480
2.326375 1.848753 0.001484
2.326375 1.848753 0.001484
2.306036 1.606230 0.001479
2.327015 1.857777 0.001482
2.134324 0.201284 0.001460
2.287577 1.392936 0.001478
2.324931 1.828130 0.001481
2.324931 1.828130 0.001481
2.326408 1.847779 0.001481
2.300968 1.550845 0.001476
2.327073 1.857248 0.001480
2.147136 0.356810 0.001456
2.140986 0.260342 0.001458
2.322745 1.796285 0.001479
2.141168 0.260441 0.001458
2.133321 0.181078 0.001456
2.325850 1.838192 0.001477
2.328044 1.869060 0.001476
2.328044 1.869060 0.001476
2.326628 1.848090 0.001476
2.326116 1.840990 0.001475
2.306442 1.605163 0.001471
2.307210 1.610372 0.001471
2.154113 0.408435 0.001451
2.129184 0.048140 0.001451
2.278741 1.284219 0.001468
2.299737 1.531501 0.001465
2.325816 1.834445 0.001470
2.130189 0.077407 0.001449
2.326220 1.838847 0.001469
2.135018 0.179322 0.001447
2.323794 1.805274 0.001467
2.326145 1.838171 0.001467
2.288962 1.395149 0.001462
2.327709 1.857912 0.001465
2.305326 1.586053 0.001461
2.280275 1.301338 0.001462
2.326038 1.833802 0.001464
2.285029 1.353970 0.001461
2.136394 0.191734 0.001444
2.134780 0.160926 0.001444
2.327979 1.860761 0.001463
2.326214 1.836036 0.001463
2.142644 0.243121 0.001443
2.281502 1.315357 0.001458
2.283283 1.335440 0.001457
2.277822 1.269651 0.001458
2.291417 1.421584 0.001457
2.325423 1.822793 0.001460
2.337403 1.987574 0.001459
2.324535 1.808816 0.001458
2.279132 1.282871 0.001454
2.324234 1.803444 0.001455
2.324234 1.803444 0.001455
2.324634 1.809970 0.001455
2.323162 1.789576 0.001455
2.326253 1.833017 0.001455
2.282222 1.319671 0.001452
2.285003 1.345775 0.001451
2.286377 1.362867 0.001450
2.138040 0.136299 0.001433
2.325234 1.814488 0.001450
2.300034 1.524357 0.001444
2.285011 1.341831 0.001446
2.285011 1.341831 0.001446
2.330324 1.888431 0.001449
2.279918 1.287127 0.001447
2.324671 1.806011 0.001448
2.284436 1.334890 0.001446
2.287615 1.370708 0.001445
2.281898 1.308418 0.001444
2.281261 1.302421 0.001443
2.284828 1.337795 0.001443
2.302490 1.544125 0.001441
2.322530 1.774544 0.001444
2.329573 1.873456 0.001443
2.287682 1.366248 0.001440
2.324403 1.798170 0.001441
2.145575 0.232372 0.001426
2.323502 1.786526 0.001441
2.322855 1.776511 0.001441
2.322855 1.776511 0.001441
2.331449 1.894378 0.001441
2.331449 1.894378 0.001441
2.281493 1.303618 0.001438
2.307931 1.592125 0.001439
2.307637 1.586427 0.001439
2.308626 1.599424 0.001438
2.323814 1.787892 0.001438
2.289514 1.384944 0.001436
2.289514 1.384944 0.001436
2.326064 1.819211 0.001438
2.288938 1.376156 0.001435
2.287222 1.357181 0.001435
2.325217 1.807491 0.001436
2.326065 1.818476 0.001435
2.329781 1.871890 0.001435
2.324499 1.796663 0.001435
2.302164 1.534603 0.001430
2.324627 1.795716 0.001432
2.284622 1.326565 0.001430
2.308407 1.593175 0.001430
2.288031 1.363724 0.001429
2.308826 1.595295 0.001429
2.301111 1.520669 0.001426
2.286590 1.346871 0.001428
2.305862 1.563569 0.001428
2.323068 1.773345 0.001430
2.283270 1.313146 0.001428
2.300387 1.512550 0.001426
2.324064 1.787258 0.001429
2.324064 1.787258 0.001429
2.148572 0.251932 0.001415
2.323179 1.774111 0.001427
2.321738 1.754081 0.001427
2.322571 1.764914 0.001427
2.322664 1.766185 0.001427
2.300838 1.516624 0.001423
2.164987 0.475914 0.001403
2.302514 1.527501 0.001418
2.299484 1.497069 0.001417
2.281413 1.283768 0.001416
2.275877 1.223056 0.001415
2.290288 1.379959 0.001413
2.302116 1.520060 0.001412
2.285415 1.325582 0.001413
2.289491 1.368896 0.001413
2.150054 0.232121 0.001402
2.285699 1.328925 0.001412
2.292417 1.405525 0.001410
2.232628 0.748663 0.001421
2.281221 1.277032 0.001410
2.274596 1.204211 0.001410
2.288164 1.344404 0.001407
2.284885 1.314426 0.001406
2.284885 1.314426 0.001406
2.140229 0.064286 0.001393
2.153668 0.256455 0.001393
2.255049 0.950095 0.001413
2.284843 1.309443 0.001403
2.289618 1.368420 0.001402
2.330564 1.871902 0.001402
2.277032 1.224208 0.001403
2.283300 1.295256 0.001402
2.228987 0.701022 0.001413
2.284066 1.302759 0.001401
2.155169 0.273527 0.001390
2.286860 1.329834 0.001400
2.288997 1.353559 0.001398
2.287507 1.335519 0.001399
2.287507 1.335519 0.001399
2.277910 1.230422 0.001399
2.230578 0.715577 0.001409
2.286765 1.323249 0.001396
2.285984 1.314271 0.001395
2.284861 1.304181 0.001395
2.306899 1.553031 0.001393
2.155865 0.264153 0.001384
2.287438 1.330741 0.001393
2.293973 1.414829 0.001391
2.281798 1.271468 0.001392
2.284126 1.292182 0.001391
2.280466 1.246661 0.001391
2.278155 1.220895 0.001391
2.287760 1.331190 0.001388
2.147535 0.176787 0.001377
2.309419 1.576809 0.001386
2.309419 1.576809 0.001386
2.143088 0.048666 0.001375
2.298012 1.457104 0.001382
2.286606 1.314133 0.001384
2.274690 1.185156 0.001385
2.292882 1.397129 0.001381
2.278217 1.217385 0.001385
2.278217 1.217385 0.001385
2.146291 0.123580 0.001373
2.327641 1.820889 0.001381
2.327641 1.820889 0.001381
2.297310 1.447527 0.001380
2.148202 0.167211 0.001372
2.148818 0.178749 0.001371
2.308084 1.558934 0.001380
2.144089 0.044294 0.001370
2.286838 1.313130 0.001380
2.296471 1.436631 0.001377
2.283010 1.274444 0.001379
2.329695 1.849607 0.001377
2.157045 0.252152 0.001370
2.287910 1.323735 0.001378
2.287910 1.323735 0.001378
2.287910 1.323735 0.001378
2.289140 1.335680 0.001377
2.287997 1.323284 0.001377
2.165794 0.350483 0.001366
2.300775 1.483266 0.001372
2.301893 1.494471 0.001371
2.325698 1.782632 0.001372
2.309988 1.574442 0.001373
2.158149 0.254773 0.001364
2.287523 1.314419 0.001371
2.165437 0.341320 0.001361
2.291585 1.361338 0.001369
2.286966 1.305711 0.001370
2.146429 0.057869 0.001361
2.166917 0.349752 0.001359
2.158579 0.248198 0.001360
2.147420 0.082523 0.001358
2.309795 1.568537 0.001366
2.312913 1.602393 0.001366
2.148293 0.100440 0.001357
2.309170 1.560743 0.001364
2.169437 0.376489 0.001356
2.308775 1.554010 0.001363
2.167820 0.347598 0.001353
2.309147 1.556273 0.001361
2.309497 1.560426 0.001361
2.312074 1.588227 0.001360
2.170796 0.381956 0.001351
2.309807 1.563769 0.001359
2.307591 1.538008 0.001357
2.311499 1.578346 0.001354
2.311921 1.585001 0.001354
2.304297 1.493650 0.001351
2.149480 0.051744 0.001344
2.185380 0.521114 0.001338
2.184657 0.512029 0.001337
2.312407 1.586823 0.001347
2.234762 0.703984 0.001357
2.185327 0.508627 0.001332
2.311800 1.572600 0.001339
2.187988 0.532133 0.001329
2.306687 1.515495 0.001337
2.312340 1.578505 0.001337
2.186512 0.513204 0.001327
2.183067 0.475369 0.001327
2.183067 0.475369 0.001327
2.307870 1.526735 0.001335
2.170513 0.320327 0.001331
2.185663 0.502940 0.001326
2.168306 0.286329 0.001331
2.167349 0.270561 0.001331
2.167349 0.270561 0.001331
2.258432 0.948633 0.001342
2.171256 0.326512 0.001329
2.305399 1.496534 0.001333
2.305567 1.498555 0.001333
2.305567 1.498555 0.001333
2.186555 0.507812 0.001324
2.170931 0.320476 0.001329
2.168068 0.277120 0.001329
2.310366 1.553726 0.001332
2.168225 0.279943 0.001329
2.168784 0.287714 0.001329
2.170182 0.307430 0.001328
2.170182 0.307430 0.001328
2.169088 0.290560 0.001328
2.168718 0.284543 0.001328
2.167774 0.268982 0.001328
2.174836 0.367168 0.001326
2.173816 0.354120 0.001326
2.260395 0.965770 0.001339
2.187126 0.509935 0.001322
2.171800 0.326606 0.001326
2.261009 0.971854 0.001338
2.261009 0.971854 0.001338
2.171576 0.323600 0.001326
2.171389 0.319974 0.001326
2.171389 0.319974 0.001326
2.304428 1.481703 0.001330
2.170180 0.302821 0.001326
2.170180 0.302821 0.001326
2.236374 0.701734 0.001343
2.288152 1.283578 0.001332
2.261411 0.975281 0.001337
2.168159 0.268260 0.001326
2.275019 1.134184 0.001332
2.154092 0.059121 0.001324
2.186839 0.503170 0.001320
2.184365 0.475897 0.001320
2.187363 0.507435 0.001319
2.172299 0.326195 0.001324
2.320300 1.676987 0.001326
2.169451 0.283701 0.001324
2.171398 0.310580 0.001322
2.188771 0.520375 0.001317
2.329123 1.807072 0.001323
2.234111 0.673422 0.001340
2.185061 0.478906 0.001318
2.185061 0.478906 0.001318
2.170824 0.299558 0.001322
2.305187 1.487128 0.001325
2.184471 0.471622 0.001318
2.170252 0.291450 0.001322
2.309092 1.532939 0.001325
2.172131 0.317746 0.001321
2.188013 0.509216 0.001316
2.284511 1.235866 0.001327
2.172680 0.323254 0.001320
2.185693 0.482220 0.001316
2.260954 0.966269 0.001332
2.170696 0.293277 0.001320
2.309708 1.539486 0.001323
2.309708 1.539486 0.001323
2.167525 0.242746 0.001321
2.170464 0.288909 0.001320
2.185224 0.475254 0.001316
2.169474 0.274041 0.001320
2.300402 1.426652 0.001323
2.276542 1.145701 0.001327
2.170074 0.282626 0.001320
2.275066 1.129076 0.001327
2.187413 0.499542 0.001315
2.175189 0.352018 0.001318
2.285589 1.245983 0.001324
2.172112 0.309551 0.001318
2.291007 1.308961 0.001323
2.291007 1.308961 0.001323
2.302003 1.445012 0.001321
2.170917 0.290480 0.001318
2.170917 0.290480 0.001318
2.188312 0.505958 0.001313
2.172616 0.314939 0.001318
2.288664 1.281721 0.001323
2.171540 0.298504 0.001317
2.283933 1.225193 0.001323
2.305897 1.492095 0.001319
2.311038 1.548587 0.001319
2.309064 1.527073 0.001319
2.299217 1.408370 0.001319
2.171403 0.292340 0.001316
2.287394 1.265243 0.001321
2.167564 0.233100 0.001317
2.286114 1.249396 0.001321
2.173519 0.321054 0.001315
2.187183 0.488935 0.001311
2.187201 0.488902 0.001311
2.309512 1.531321 0.001317
2.232919 0.650170 0.001332
2.186548 0.481491 0.001311
2.260702 0.956607 0.001326
2.171507 0.289769 0.001315
2.171507 0.289769 0.001315
2.172486 0.303941 0.001314
2.174668 0.334132 0.001313
2.284502 1.229750 0.001319
2.188952 0.504582 0.001309
2.285689 1.243929 0.001319
2.173707 0.318322 0.001313
2.173707 0.318322 0.001313
2.187928 0.493233 0.001309
2.174025 0.322860 0.001313
2.261303 0.962365 0.001324
2.168890 0.241945 0.001314
2.172968 0.306419 0.001312
2.171985 0.291551 0.001313
2.259317 0.940126 0.001324
2.187328 0.484566 0.001308
2.186999 0.480236 0.001308
2.275134 1.123246 0.001319
2.311723 1.553568 0.001314
2.189757 0.509741 0.001306
2.174151 0.319772 0.001311
2.186626 0.473929 0.001307
2.169352 0.246429 0.001312
2.306191 1.491211 0.001312
2.172228 0.289659 0.001311
2.233500 0.650140 0.001327
2.304986 1.475556 0.001312
2.260383 0.948108 0.001321
2.302266 1.440902 0.001312
2.286922 1.254123 0.001315
2.295285 1.355283 0.001313
2.309704 1.527515 0.001311
2.227118 0.576871 0.001327
2.260951 0.954519 0.001320
2.172302 0.287098 0.001309
2.274242 1.111229 0.001316
2.235283 0.669771 0.001325
2.324220 1.724400 0.001309
2.189670 0.503207 0.001304
2.285357 1.236488 0.001313
2.284664 1.227093 0.001314
2.284664 1.227093 0.001314
2.189261 0.498874 0.001304
2.174944 0.322704 0.001308
2.305692 1.482587 0.001309
2.305692 1.482587 0.001309
2.276528 1.132190 0.001314
2.260170 0.942168 0.001318
2.310712 1.537307 0.001309
2.284239 1.219821 0.001312
2.187799 0.477987 0.001302
2.187799 0.477987 0.001302
2.173101 0.289764 0.001306
2.185311 0.457362 0.001302
2.171277 0.259167 0.001306
2.176318 0.332985 0.001305
2.176318 0.332985 0.001305
2.260422 0.943408 0.001316
2.229309 0.592328 0.001323
2.187579 0.472593 0.001301
2.176689 0.338232 0.001304
2.301602 1.429424 0.001306
2.188265 0.479143 0.001300
2.190051 0.499205 0.001299
2.260746 0.945546 0.001314
2.323733 1.713074 0.001303
2.286471 1.243609 0.001307
2.173628 0.289503 0.001303
2.173628 0.289503 0.001303
2.261226 0.950340 0.001313
2.188037 0.474952 0.001299
2.175227 0.313047 0.001302
2.175227 0.313047 0.001302
2.177425 0.342605 0.001302
2.259550 0.931310 0.001313
2.305138 1.471587 0.001303
2.312094 1.549368 0.001304
2.173475 0.285759 0.001302
2.173475 0.285759 0.001302
2.276054 1.123490 0.001308
2.190086 0.495317 0.001297
2.297115 1.369095 0.001304
2.297115 1.369095 0.001304
2.180534 0.379033 0.001300
2.227080 0.564616 0.001319
2.173824 0.286881 0.001301
2.179057 0.357573 0.001300
2.282148 1.191113 0.001306
2.188134 0.471796 0.001297
2.277288 1.135057 0.001306
2.189456 0.486007 0.001296
2.189456 0.486007 0.001296
2.188817 0.478308 0.001296
2.319628 1.650294 0.001300
2.190127 0.490288 0.001294
2.279233 1.155308 0.001305
2.174262 0.288547 0.001299
2.189744 0.485756 0.001294
2.308976 1.511776 0.001300
2.190955 0.498065 0.001294
2.189526 0.481764 0.001294
2.189526 0.481764 0.001294
2.189199 0.477507 0.001294
2.324350 1.721362 0.001296
2.226805 0.556319 0.001315
2.180643 0.367127 0.001296
2.190998 0.494734 0.001292
2.187963 0.459178 0.001292
2.309484 1.514139 0.001296
2.294453 1.332891 0.001298
2.304684 1.458771 0.001296
2.180998 0.366800 0.001294
2.189790 0.477738 0.001290
2.279964 1.159491 0.001300
2.277112 1.126904 0.001300
2.309656 1.515251 0.001295
2.318556 1.629867 0.001294
2.322661 1.691314 0.001293
2.227340 0.556345 0.001311
2.310628 1.525774 0.001294
2.322128 1.682879 0.001292
2.326385 1.744308 0.001291
2.276781 1.122428 0.001298
2.235668 0.651294 0.001308
2.282051 1.183605 0.001297
2.226859 0.549953 0.001310
2.286563 1.237431 0.001295
2.305631 1.470992 0.001291
2.280763 1.165681 0.001295
2.321624 1.672269 0.001290
2.181369 0.362553 0.001290
2.181293 0.362252 0.001289
2.190463 0.476165 0.001286
2.227638 0.555218 0.001307
2.277755 1.128816 0.001294
2.280370 1.158295 0.001293
2.289082 1.262586 0.001291
2.182120 0.366595 0.001287
2.228114 0.558038 0.001306
2.256303 0.880755 0.001299
2.226198 0.537330 0.001305
2.190938 0.476096 0.001283
2.337132 1.946689 0.001277
2.286081 1.226775 0.001290
2.280782 1.161908 0.001291
2.280782 1.161908 0.001291
2.183383 0.378482 0.001285
2.277484 1.123545 0.001291
2.280813 1.161402 0.001290
2.296506 1.345793 0.001287
2.296506 1.345793 0.001287
2.183028 0.368280 0.001283
2.282827 1.190554 0.001286
2.286726 1.230303 0.001286
2.289820 1.267467 0.001285
2.295153 1.327112 0.001284
2.165413 0.136359 0.001281
2.275802 1.103712 0.001286
2.292434 1.293358 0.001283
2.260612 0.918857 0.001290
2.306110 1.464253 0.001280
2.163169 0.055108 0.001279
2.294653 1.319067 0.001281
2.285902 1.219429 0.001282
2.274668 1.088261 0.001284
2.274668 1.088261 0.001284
2.280962 1.163126 0.001282
2.277222 1.114215 0.001283
2.189318 0.433961 0.001275
2.293805 1.306138 0.001279
2.307163 1.475688 0.001275
2.192673 0.475239 0.001273
2.286652 1.227324 0.001278
2.283263 1.187447 0.001279
2.284365 1.201107 0.001278
2.302987 1.420488 0.001275
2.295642 1.323946 0.001277
2.295828 1.327496 0.001276
2.192761 0.472777 0.001271
2.281166 1.161852 0.001278
2.292201 1.286540 0.001276
2.292201 1.286540 0.001276
2.301056 1.398661 0.001274
2.183170 0.349715 0.001273
2.184889 0.367762 0.001272
2.193203 0.472932 0.001268
2.193831 0.480294 0.001268
2.306311 1.459694 0.001270
2.260561 0.908127 0.001281
2.179428 0.309010 0.001270
2.292555 1.286495 0.001272
2.194499 0.484575 0.001267
2.194499 0.484575 0.001267
2.194120 0.480119 0.001267
2.304395 1.431932 0.001269
2.194505 0.483411 0.001266
2.195009 0.486931 0.001265
2.304858 1.438865 0.001267
2.193717 0.468298 0.001264
2.195232 0.484870 0.001263
2.260481 0.902236 0.001276
2.292693 1.283191 0.001267
2.296180 1.322197 0.001267
2.309085 1.485977 0.001264
2.306802 1.460540 0.001264
2.306802 1.460540 0.001264
2.181228 0.318577 0.001264
2.194540 0.474276 0.001261
2.313618 1.540613 0.001263
2.192570 0.448371 0.001261
2.193777 0.462385 0.001260
2.287703 1.223660 0.001265
2.195132 0.476783 0.001259
2.181137 0.308608 0.001261
2.302731 1.404952 0.001261
2.196279 0.487177 0.001257
2.303852 1.419743 0.001260
2.181655 0.313578 0.001260
2.194903 0.469331 0.001257
2.194903 0.469331 0.001257
2.195467 0.475424 0.001257
2.195467 0.475424 0.001257
2.306094 1.448535 0.001259
2.187028 0.366971 0.001259
2.242573 0.714832 0.001270
2.242211 0.709666 0.001270
2.303030 1.405152 0.001257
2.243187 0.721298 0.001269
2.192869 0.440470 0.001255
2.181717 0.304978 0.001257
2.194956 0.463747 0.001254
2.289638 1.244619 0.001258
2.181665 0.301894 0.001257
2.181665 0.301894 0.001257
2.288953 1.233600 0.001258
2.186130 0.345351 0.001256
2.194253 0.453336 0.001253
2.180008 0.280843 0.001256
2.193663 0.446461 0.001253
2.294407 1.294356 0.001257
2.301714 1.386788 0.001255
2.305254 1.434080 0.001254
2.195593 0.466813 0.001252
2.182255 0.305508 0.001255
2.274792 1.072167 0.001258
2.306431 1.449776 0.001252
2.296887 1.324190 0.001254
2.294254 1.288091 0.001253
2.181155 0.288296 0.001253
2.300666 1.369938 0.001251
2.180618 0.278165 0.001252
2.292891 1.275991 0.001253
2.182312 0.296118 0.001251
2.301442 1.377329 0.001250
2.194086 0.441191 0.001249
2.195945 0.462373 0.001248
2.169789 0.077469 0.001252
2.180494 0.272670 0.001251
2.196920 0.472885 0.001247
2.187925 0.353122 0.001250
2.197782 0.480917 0.001246
2.197782 0.480917 0.001246
2.169738 0.058271 0.001250
2.169738 0.058271 0.001250
2.197421 0.475662 0.001246
2.181086 0.275272 0.001249
2.198334 0.484154 0.001244
2.304696 1.421923 0.001245
2.180987 0.270996 0.001248
2.189367 0.365853 0.001247
2.197604 0.472615 0.001243
2.289762 1.233149 0.001247
2.181887 0.279688 0.001246
2.196653 0.458531 0.001243
2.195519 0.445847 0.001243
2.311312 1.494561 0.001243
2.181619 0.273242 0.001245
2.183930 0.300518 0.001245
2.198113 0.473655 0.001241
2.304873 1.420616 0.001241
2.289572 1.227937 0.001244
2.291332 1.245420 0.001242
2.197953 0.466335 0.001238
2.303199 1.403424 0.001238
2.243000 0.696093 0.001251
2.183478 0.287621 0.001240
2.189349 0.347385 0.001240
2.288504 1.212363 0.001240
2.310818 1.484549 0.001237
2.289256 1.220242 0.001240
2.241905 0.679808 0.001248
2.310356 1.475165 0.001233
2.307386 1.444136 0.001232
2.310245 1.471876 0.001232
2.310245 1.471876 0.001232
2.243068 0.688949 0.001246
2.284601 1.163578 0.001236
2.295266 1.286360 0.001234
2.311481 1.486366 0.001231
2.291422 1.238721 0.001234
2.283909 1.152816 0.001234
2.260515 0.866021 0.001242
2.260515 0.866021 0.001242
2.282711 1.138345 0.001234
2.282780 1.138631 0.001234
2.311507 1.485154 0.001228
2.187823 0.320176 0.001231
2.297984 1.314602 0.001229
2.188659 0.329938 0.001230
2.309234 1.459207 0.001227
2.191323 0.350208 0.001230
2.295218 1.280162 0.001229
2.187881 0.313881 0.001229
2.295700 1.286031 0.001228
2.282938 1.136657 0.001230
2.260370 0.858982 0.001237
2.260370 0.858982 0.001237
2.285975 1.173298 0.001228
2.311096 1.479869 0.001224
2.186123 0.287340 0.001228
2.188907 0.325181 0.001227
2.294484 1.268352 0.001226
2.294484 1.268352 0.001226
2.283791 1.146199 0.001228
2.300912 1.365707 0.001222
2.188476 0.315561 0.001226
2.192463 0.354891 0.001226
2.282629 1.129479 0.001226
2.188964 0.320589 0.001225
2.184471 0.251082 0.001225
2.192342 0.347669 0.001224
2.188643 0.309869 0.001224
2.189156 0.316883 0.001223
2.260388 0.853794 0.001232
2.306996 1.429904 0.001218
2.306996 1.429904 0.001218
2.295724 1.279138 0.001221
2.190070 0.328676 0.001222
2.293344 1.248958 0.001220
2.283320 1.133366 0.001221
2.285698 1.162914 0.001220
2.275008 1.040001 0.001222
2.293488 1.248740 0.001218
2.293488 1.248740 0.001218
2.193446 0.351506 0.001219
2.282540 1.122277 0.001220
2.185695 0.252712 0.001219
2.193365 0.345364 0.001217
2.293679 1.248064 0.001215
2.189745 0.304262 0.001217
2.283632 1.130032 0.001216
2.191654 0.329556 0.001214
2.186301 0.249966 0.001215
2.194510 0.353130 0.001214
2.188643 0.281465 0.001215
2.188643 0.281465 0.001215
2.291045 1.213768 0.001213
2.275284 1.035241 0.001215
2.176914 0.078225 0.001214
2.196367 0.374515 0.001213
2.292403 1.228166 0.001212
2.293678 1.243850 0.001211
2.291347 1.215503 0.001211
2.292721 1.231274 0.001210
2.284415 1.131524 0.001212
2.186818 0.253659 0.001211
2.291674 1.217285 0.001209
2.186659 0.246109 0.001211
2.196699 0.370999 0.001210
2.196430 0.367198 0.001210
2.284001 1.124399 0.001210
2.291260 1.211115 0.001208
2.285002 1.138153 0.001209
2.196481 0.363362 0.001208
2.292593 1.226599 0.001207
2.290388 1.199180 0.001207
2.291682 1.214502 0.001206
2.197092 0.369687 0.001207
2.275774 1.034160 0.001208
2.178031 0.075274 0.001208
2.284716 1.129071 0.001207
2.289267 1.185211 0.001206
2.289718 1.191133 0.001205
2.299088 1.338456 0.001197
2.288736 1.176954 0.001204
2.190533 0.277825 0.001205
2.291524 1.209439 0.001202
2.290875 1.200471 0.001202
2.290875 1.200471 0.001202
2.295820 1.305028 0.001195
2.282869 1.103884 0.001203
2.286583 1.148026 0.001202
2.333671 1.816894 0.001188
2.201300 0.415458 0.001201
2.284724 1.123918 0.001202
2.287862 1.164403 0.001201
2.191967 0.288767 0.001202
2.187587 0.236234 0.001202
2.299547 1.341100 0.001192
2.196666 0.348404 0.001200
2.290483 1.192052 0.001197
2.289254 1.176206 0.001196
2.293580 1.228371 0.001194
2.195612 0.327946 0.001197
2.281760 1.083468 0.001196
2.281760 1.083468 0.001196
2.283654 1.104512 0.001195
2.294060 1.233161 0.001192
2.250858 0.710577 0.001203
2.291768 1.205733 0.001191
2.196113 0.325258 0.001193
2.196113 0.325258 0.001193
2.197305 0.338543 0.001193
2.289180 1.170135 0.001190
2.251809 0.720891 0.001200
2.195016 0.302046 0.001192
2.291412 1.197030 0.001188
2.288299 1.157589 0.001189
2.283291 1.093806 0.001190
2.283291 1.093806 0.001190
2.195634 0.306026 0.001190
2.195449 0.302395 0.001190
2.196064 0.311987 0.001190
2.283851 1.098561 0.001187
2.283851 1.098561 0.001187
2.197439 0.327742 0.001187
2.287585 1.143162 0.001185
2.292232 1.202096 0.001183
2.196439 0.303461 0.001185
2.182850 0.069679 0.001185
2.283703 1.090989 0.001182
2.195577 0.281135 0.001183
2.295480 1.239314 0.001178
2.197063 0.305043 0.001182
2.285925 1.115857 0.001180
2.294542 1.225104 0.001177
2.295163 1.231399 0.001175
2.295227 1.231421 0.001175
2.295227 1.231421 0.001175
2.286581 1.122287 0.001177
2.195624 0.267969 0.001179
2.286905 1.123463 0.001175
2.285897 1.110856 0.001175
2.285897 1.110856 0.001175
2.284158 1.088608 0.001175
2.287351 1.128380 0.001173
2.196610 0.274268 0.001175
2.338664 1.846471 0.001159
2.276793 1.012561 0.001169
2.197418 0.274971 0.001171
2.285505 1.099453 0.001168
2.297401 1.248894 0.001164
2.297980 1.255091 0.001161
2.276020 0.999498 0.001165
2.279616 1.037595 0.001164
2.276787 1.006362 0.001164
2.276787 1.006362 0.001164
2.249991 0.653574 0.001168
2.285851 1.120760 0.001150
2.250001 0.647900 0.001164
2.250185 0.644703 0.001161
2.281648 1.045986 0.001145
2.265466 1.046715 0.001126
2.282314 1.052872 0.001144
2.249932 0.633154 0.001155
2.265624 1.042682 0.001122
2.250162 0.627794 0.001150
2.200203 0.252515 0.001142
2.251168 0.645204 0.001149
2.201120 0.256848 0.001139
2.251209 0.639565 0.001145
2.250279 0.618354 0.001144
2.250676 0.620463 0.001142
2.245693 0.532817 0.001141
2.202668 0.249164 0.001128
2.200837 0.209861 0.001129
2.202677 0.241418 0.001127
2.203236 0.251431 0.001126
2.202617 0.234114 0.001125
2.201705 0.212676 0.001125
2.253624 0.642853 0.001130
2.203827 0.252013 0.001123
2.201169 0.198199 0.001124
2.203516 0.243836 0.001123
2.202959 0.232029 0.001123
2.203387 0.240479 0.001123
2.202276 0.213803 0.001122
2.202276 0.213803 0.001122
2.203889 0.244743 0.001121
2.201327 0.187931 0.001120
2.202606 0.211923 0.001120
2.202837 0.216241 0.001120
2.203829 0.236888 0.001119
2.201180 0.178252 0.001119
2.203275 0.220920 0.001118
2.203741 0.227299 0.001118
2.252530 0.616514 0.001124
2.203776 0.216489 0.001115
2.205638 0.250157 0.001113
2.204341 0.215113 0.001111
2.260827 0.722586 0.001114
2.204874 0.221341 0.001110
2.248700 0.549191 0.001117
2.233189 0.377264 0.001118
2.231410 0.339050 0.001114
2.271940 0.849479 0.001105
2.231078 0.331670 0.001113
2.271718 0.844670 0.001104
2.252374 0.590731 0.001109
2.256160 0.625735 0.001107
2.244691 0.466458 0.001109
2.244691 0.466458 0.001109
2.244691 0.466458 0.001109
2.249220 0.555761 0.001106
2.256906 0.633803 0.001105
2.268069 0.797787 0.001100
2.257632 0.636564 0.001101
2.268919 0.800880 0.001095
2.264466 0.743668 0.001096
2.261581 0.704196 0.001095
2.268112 0.786340 0.001092
2.229486 0.284627 0.001099
2.256724 0.611928 0.001096
2.256724 0.611928 0.001096
2.258107 0.628710 0.001094
2.265462 0.748447 0.001090
2.273911 0.854850 0.001087
2.258073 0.625641 0.001094
2.268608 0.786467 0.001088
2.257243 0.614218 0.001094
2.288780 1.055690 0.001080
2.274201 0.856933 0.001086
2.257848 0.620296 0.001092
2.333113 1.674233 0.001065
2.258486 0.624875 0.001090
2.272954 0.830520 0.001081
2.231477 0.298418 0.001090
2.277334 0.885567 0.001076
2.332411 1.658760 0.001058
2.330052 1.625171 0.001057
2.224124 0.129140 0.001086
2.243733 0.422911 0.001084
2.279862 0.912143 0.001071
2.207147 0.006212 0.001074
2.333688 1.666723 0.001051
2.255977 0.563835 0.001078
2.207915 0.025607 0.001071
2.256081 0.560545 0.001075
2.259328 0.612859 0.001074
2.257308 0.573791 0.001071
2.332821 1.642264 0.001041
2.332305 1.631947 0.001038
2.210323 0.009559 0.001057
2.261485 0.617745 0.001059
2.210700 0.006789 0.001055
2.211298 0.032587 0.001054
2.210989 0.006669 0.001054
2.262960 0.633519 0.001055
2.331497 1.611789 0.001029
2.216542 0.195368 0.001051
2.263734 0.665649 0.001049
2.218672 0.229223 0.001047
2.293594 1.053146 0.001038
2.291799 1.026043 0.001037
2.291316 1.015698 0.001035
2.291316 1.015698 0.001035
2.291559 1.017827 0.001034
2.291559 1.017827 0.001034
2.291817 1.017772 0.001031
2.260084 0.569015 0.001043
2.331821 1.600327 0.001016
2.293766 1.037795 0.001027
2.294373 1.042096 0.001024
2.294373 1.042096 0.001024
2.291404 1.002670 0.001024
2.264116 0.619907 0.001034
2.290918 0.993967 0.001023
2.309039 1.250067 0.001016
2.308741 1.244541 0.001014
2.293583 1.025818 0.001020
2.289538 0.978560 0.001020
2.309949 1.256044 0.001012
2.293761 1.023931 0.001016
2.296781 1.065907 0.001015
2.296781 1.065907 0.001015
2.292316 1.003126 0.001015
2.292316 1.003126 0.001015
2.291911 0.995805 0.001013
2.267513 0.674402 0.001020
2.304960 1.170286 0.001003
2.308803 1.224115 0.001001
2.300766 1.101832 0.001001
2.300766 1.101832 0.001001
2.299804 1.087168 0.001001
2.310521 1.242383 0.000997
2.310521 1.242383 0.000997
2.300844 1.101383 0.001000
2.295887 1.036659 0.001000
2.217808 0.089028 0.001009
2.299232 1.077818 0.000999
2.259737 0.513736 0.001013
2.290157 0.956664 0.001001
2.301959 1.114189 0.000997
2.226950 0.250415 0.001007
2.226950 0.250415 0.001007
2.300346 1.087876 0.000996
2.259830 0.510825 0.001011
2.308651 1.208416 0.000992
2.307626 1.195123 0.000993
2.218488 0.088383 0.001006
2.272694 0.733291 0.001003
2.218227 0.069262 0.001005
2.218227 0.069262 0.001005
2.302319 1.112971 0.000992
2.303462 1.125641 0.000991
2.300755 1.088239 0.000991
2.300400 1.080840 0.000990
2.302137 1.097592 0.000987
2.231943 0.310972 0.000996
2.219835 0.059317 0.000995
2.230704 0.279697 0.000995
2.307725 1.177675 0.000981
2.299854 1.067258 0.000984
2.306334 1.152601 0.000980
2.232690 0.309888 0.000991
2.299505 1.057651 0.000981
2.247426 0.533788 0.000981
2.302087 1.100994 0.000973
2.222890 0.081394 0.000982
2.285908 0.874360 0.000975
2.246181 0.501519 0.000975
2.317853 1.298879 0.000964
2.285536 0.866603 0.000973
2.285536 0.866603 0.000973
2.284580 0.853313 0.000972
2.248734 0.532680 0.000972
2.317142 1.285599 0.000961
2.317627 1.291825 0.000961
2.315018 1.256425 0.000961
2.223665 0.069400 0.000977
2.223665 0.069400 0.000977
2.317620 1.287807 0.000958
2.286747 0.868224 0.000964
2.285542 0.851603 0.000964
2.285542 0.851603 0.000964
2.285542 0.851603 0.000964
2.326185 1.435946 0.000948
2.315891 1.257635 0.000953
2.286272 0.858346 0.000961
2.230119 0.138896 0.000969
2.326732 1.440977 0.000946
2.315964 1.257075 0.000952
2.225212 0.045043 0.000967
2.285698 0.848338 0.000960
2.316170 1.258063 0.000950
2.315806 1.252270 0.000949
2.286673 0.857418 0.000958
2.326725 1.437376 0.000943
2.226228 0.057633 0.000964
2.312137 1.203576 0.000948
2.312137 1.203576 0.000948
2.286492 0.849048 0.000952
2.227875 0.066959 0.000957
2.319520 1.305296 0.000938
2.239107 0.299173 0.000953
2.315262 1.232220 0.000938
2.239302 0.297243 0.000952
2.240364 0.304585 0.000948
2.313261 1.196390 0.000934
2.228974 0.055657 0.000949
2.252714 0.516962 0.000943
2.239486 0.287579 0.000948
2.239486 0.287579 0.000948
2.316556 1.244905 0.000931
2.234711 0.162942 0.000948
2.240624 0.302837 0.000946
2.328440 1.434184 0.000924
2.233421 0.107874 0.000946
2.313119 1.184993 0.000929
2.240779 0.293274 0.000943
2.240010 0.276353 0.000942
2.239381 0.260237 0.000942
2.271390 0.768291 0.000928
2.230235 0.050460 0.000942
2.314620 1.204477 0.000925
2.240031 0.266614 0.000940
2.240031 0.266614 0.000940
2.315473 1.213735 0.000924
2.313220 1.179806 0.000925
2.240326 0.269970 0.000939
2.240062 0.263042 0.000939
2.240062 0.263042 0.000939
2.239773 0.256110 0.000939
2.319779 1.279102 0.000922
2.315207 1.208047 0.000923
2.315207 1.208047 0.000923
2.269854 0.737792 0.000925
2.316072 1.221204 0.000922
2.317790 1.248412 0.000921
2.315339 1.208774 0.000922
2.337711 1.543318 0.000915
2.299802 0.966745 0.000928
2.300165 0.970023 0.000927
2.239860 0.238519 0.000935
2.316267 1.218761 0.000919
2.239435 0.224211 0.000934
2.239435 0.224211 0.000934
2.239767 0.232121 0.000934
2.233566 0.005053 0.000934
2.314619 1.190679 0.000918
2.240118 0.233419 0.000932
2.239743 0.222357 0.000932
2.240022 0.228158 0.000932
2.319447 1.260015 0.000914
2.240635 0.234258 0.000930
2.240635 0.234258 0.000930
2.234166 0.003563 0.000931
2.240819 0.238008 0.000930
2.240367 0.226924 0.000930
2.314986 1.185065 0.000914
2.243357 0.293563 0.000928
2.238846 0.193601 0.000929
2.234431 0.005425 0.000929
2.300998 0.967788 0.000918
2.240582 0.222627 0.000927
2.241281 0.237456 0.000927
2.240840 0.226572 0.000927
2.240840 0.226572 0.000927
2.241032 0.229966 0.000927
2.258641 0.549873 0.000919
2.235178 0.005628 0.000925
2.301985 0.975692 0.000915
2.301524 0.968969 0.000915
2.241917 0.237330 0.000923
2.241356 0.222395 0.000923
2.241722 0.229485 0.000923
2.241475 0.221126 0.000923
2.241569 0.223810 0.000922
2.274124 0.765029 0.000907
2.242005 0.226656 0.000921
2.237367 0.038224 0.000917
2.241900 0.196006 0.000915
2.245956 0.290037 0.000913
2.276463 0.775935 0.000899
2.236657 0.070111 0.000911
2.278410 0.798439 0.000896
2.279284 0.809149 0.000896
2.279555 0.811896 0.000895
2.279226 0.803973 0.000893
2.278659 0.796460 0.000893
2.249279 0.357069 0.000904
2.249279 0.357069 0.000904
2.325602 1.327678 0.000887
2.330270 1.399286 0.000885
2.324842 1.312876 0.000885
2.325489 1.321511 0.000884
2.250401 0.367130 0.000901
2.261785 0.539301 0.000897
2.305099 0.984344 0.000893
2.267742 0.628846 0.000893
2.238985 0.097028 0.000902
2.331145 1.410033 0.000880
2.304468 0.971680 0.000891
2.238401 0.058885 0.000901
2.304268 0.967600 0.000891
2.314678 1.139984 0.000885
2.324777 1.303951 0.000880
2.257480 0.463708 0.000895
2.239159 0.084062 0.000900
2.245075 0.204935 0.000900
2.254432 0.406410 0.000896
2.250979 0.357882 0.000896
2.304675 0.970800 0.000889
2.304675 0.970800 0.000889
2.245162 0.201113 0.000899
2.330428 1.386806 0.000877
2.305810 0.986564 0.000888
2.305501 0.980613 0.000887
2.264033 0.555287 0.000889
2.280654 0.797046 0.000881
2.252097 0.368282 0.000893
2.239757 0.070907 0.000895
2.239757 0.070907 0.000895
2.306195 0.986214 0.000885
2.249008 0.278617 0.000893
2.305993 0.982541 0.000884
2.325053 1.297079 0.000875
2.314534 1.125749 0.000879
2.330498 1.379509 0.000872
2.315045 1.131590 0.000878
2.304065 0.949472 0.000883
2.304583 0.958384 0.000882
2.241572 0.112844 0.000891
2.306568 0.985006 0.000881
2.257319 0.436088 0.000886
2.257931 0.442555 0.000886
2.305860 0.974293 0.000880
2.253042 0.366288 0.000887
2.281645 0.798115 0.000875
2.250042 0.275241 0.000887
2.250362 0.282103 0.000887
2.306924 0.982029 0.000876
2.325248 1.285304 0.000866
2.317524 1.158177 0.000869
2.242337 0.096862 0.000885
2.250716 0.277805 0.000883
2.250716 0.277805 0.000883
2.242386 0.092492 0.000884
2.318168 1.166404 0.000868
2.258271 0.431540 0.000880
2.258621 0.434311 0.000879
2.305977 0.963682 0.000873
2.284818 0.828923 0.000867
2.303772 0.931268 0.000873
2.251047 0.276674 0.000881
2.281421 0.780670 0.000868
2.250973 0.270069 0.000880
2.307423 0.981844 0.000871
2.242814 0.086567 0.000881
2.250763 0.263130 0.000880
2.249576 0.234191 0.000880
2.309475 1.010504 0.000869
2.313415 1.080040 0.000867
2.318065 1.156397 0.000864
2.313517 1.079955 0.000866
2.324896 1.266173 0.000860
2.242752 0.066521 0.000879
2.250315 0.241353 0.000878
2.249649 0.223159 0.000878
2.309714 1.009268 0.000866
2.309714 1.009268 0.000866
2.251013 0.251330 0.000876
2.310927 1.025506 0.000865
2.250848 0.246506 0.000876
2.250848 0.246506 0.000876
2.307539 0.975211 0.000866
2.308228 0.984958 0.000866
2.330018 1.338733 0.000854
2.243865 0.077509 0.000874
2.255148 0.352081 0.000871
2.270096 0.593334 0.000865
2.315260 1.098149 0.000860
2.306820 0.960457 0.000863
2.254721 0.341462 0.000871
2.260164 0.430833 0.000869
2.259303 0.414136 0.000869
2.308243 0.979695 0.000862
2.308243 0.979695 0.000862
2.259854 0.425599 0.000869
2.259651 0.420511 0.000868
2.259651 0.420511 0.000868
2.251878 0.250430 0.000871
2.251878 0.250430 0.000871
2.251878 0.250430 0.000871
2.330039 1.333802 0.000851
2.330039 1.333802 0.000851
2.311584 1.025940 0.000860
2.305917 0.944804 0.000861
2.309578 0.995304 0.000860
2.260910 0.433650 0.000865
2.317816 1.130817 0.000855
2.260182 0.419745 0.000865
2.304905 0.928232 0.000859
2.334508 1.404156 0.000847
2.311512 1.019082 0.000856
2.271044 0.590867 0.000859
2.270669 0.584689 0.000859
2.272731 0.617516 0.000858
2.272731 0.617516 0.000858
2.271874 0.603688 0.000858
2.271874 0.603688 0.000858
2.259845 0.405881 0.000863
2.271705 0.598969 0.000858
2.271253 0.590523 0.000857
2.245936 0.089840 0.000865
2.312947 1.036607 0.000853
2.312947 1.036607 0.000853
2.318433 1.131182 0.000850
2.275605 0.654422 0.000854
2.271545 0.591338 0.000856
2.310380 0.997253 0.000853
2.310380 0.997253 0.000853
2.313583 1.044944 0.000852
2.271225 0.585237 0.000856
2.271572 0.589003 0.000855
2.284217 0.778120 0.000849
2.256222 0.337847 0.000860
2.315040 1.066078 0.000850
2.253717 0.251775 0.000862
2.253717 0.251775 0.000862
2.271806 0.589978 0.000854
2.308160 0.961981 0.000852
2.246597 0.093623 0.000862
2.313832 1.045072 0.000850
2.318563 1.125623 0.000847
2.312016 1.017323 0.000850
2.260663 0.406724 0.000858
2.254794 0.273463 0.000860
2.257160 0.349698 0.000858
2.271720 0.584275 0.000852
2.256379 0.331938 0.000858
2.312988 1.029668 0.000848
2.262509 0.427069 0.000855
2.272026 0.585007 0.000851
2.313249 1.031096 0.000846
2.312138 1.013285 0.000847
2.250016 0.161642 0.000858
2.255335 0.272755 0.000857
2.246305 0.041797 0.000857
2.283742 0.759337 0.000844
2.257471 0.340214 0.000855
2.254534 0.246637 0.000856
2.313037 1.024458 0.000845
2.254551 0.244009 0.000855
2.309520 0.973426 0.000845
2.247145 0.060019 0.000855
2.261113 0.396610 0.000851
2.248052 0.095542 0.000855
2.261230 0.396128 0.000851
2.247208 0.052579 0.000854
2.258427 0.341137 0.000850
2.258885 0.350247 0.000850
2.258725 0.344660 0.000849
2.315550 1.055111 0.000839
2.255731 0.248233 0.000850
2.247983 0.060206 0.000851
2.257764 0.323769 0.000848
2.317617 1.086076 0.000837
2.317617 1.086076 0.000837
2.259107 0.348282 0.000848
2.258871 0.341258 0.000847
2.259346 0.349302 0.000847
2.258384 0.330037 0.000847
2.315410 1.049544 0.000836
2.248509 0.068733 0.000849
2.317460 1.080841 0.000836
2.287033 0.786385 0.000834
2.329338 1.286599 0.000829
2.259547 0.346656 0.000845
2.323942 1.185513 0.000831
2.263713 0.417047 0.000843
2.315857 1.051549 0.000834
2.259092 0.333495 0.000844
2.315495 1.045948 0.000834
2.316393 1.058957 0.000833
2.290293 0.822191 0.000830
2.290293 0.822191 0.000830
2.248862 0.042092 0.000844
2.321422 1.135943 0.000828
2.260166 0.340546 0.000840
2.320955 1.126472 0.000827
2.260287 0.344123 0.000839
2.258841 0.278639 0.000840
2.249964 0.057403 0.000840
2.250052 0.054603 0.000839
2.256571 0.214683 0.000838
2.251104 0.093088 0.000838
2.260587 0.334370 0.000836
2.265035 0.403612 0.000833
2.265831 0.416403 0.000833
2.258918 0.264137 0.000836
2.286882 0.757491 0.000823
2.266370 0.422302 0.000832
2.259296 0.266280 0.000834
2.287071 0.755538 0.000821
2.252651 0.116225 0.000834
2.260728 0.319425 0.000832
2.265454 0.398693 0.000830
2.265441 0.397244 0.000830
2.276379 0.585395 0.000825
2.287268 0.754220 0.000819
2.291366 0.811896 0.000817
2.254758 0.173725 0.000831
2.272594 0.517698 0.000826
2.253317 0.117439 0.000830
2.263602 0.357942 0.000827
2.253444 0.111418 0.000829
2.253042 0.095040 0.000829
2.267089 0.414150 0.000825
2.252866 0.085165 0.000828
2.267502 0.417985 0.000824
2.286278 0.730166 0.000816
2.286278 0.730166 0.000816
2.255152 0.163994 0.000828
2.276186 0.569313 0.000820
2.287669 0.749585 0.000815
2.252791 0.073550 0.000828
2.287318 0.742733 0.000814
2.252671 0.051923 0.000826
2.262806 0.329100 0.000823
2.287758 0.744782 0.000812
2.255529 0.159848 0.000824
2.326775 1.234155 0.000804
2.253699 0.083590 0.000824
2.266786 0.391245 0.000820
2.258991 0.224470 0.000822
2.290877 0.784641 0.000808
2.263795 0.336146 0.000819
2.291457 0.791156 0.000807
2.288409 0.745682 0.000808
2.288409 0.745682 0.000808
2.263560 0.328317 0.000818
2.288264 0.742632 0.000808
2.287215 0.726597 0.000808
2.287612 0.731595 0.000808
2.273844 0.507330 0.000814
2.286501 0.713386 0.000808
2.266797 0.378647 0.000816
2.259891 0.224869 0.000818
2.268262 0.400625 0.000815
2.268820 0.411363 0.000814
2.260272 0.228793 0.000817
2.267036 0.376565 0.000814
2.282992 0.651064 0.000807
2.283281 0.655558 0.000807
2.290890 0.774079 0.000803
2.264471 0.331594 0.000815
2.268906 0.406021 0.000813
2.266862 0.369013 0.000813
2.271681 0.454648 0.000812
2.272190 0.461626 0.000811
2.261285 0.248429 0.000814
2.271177 0.441878 0.000811
2.274872 0.504430 0.000808
2.277137 0.541908 0.000806
2.275817 0.515449 0.000805
2.276632 0.530671 0.000805
2.274282 0.484457 0.000805
2.270969 0.421259 0.000806
2.274283 0.483969 0.000805
2.271305 0.427679 0.000806
2.275418 0.502677 0.000804
2.273303 0.463542 0.000805
2.270450 0.408485 0.000806
2.270452 0.408205 0.000806
2.275099 0.495413 0.000804
2.275972 0.509405 0.000803
2.272586 0.445796 0.000804
2.271207 0.417371 0.000804
2.271207 0.417371 0.000804
2.264585 0.274452 0.000806
2.271874 0.426640 0.000802
2.266550 0.311073 0.000804
2.287449 0.692059 0.000792
2.287096 0.686220 0.000792
2.291303 0.746644 0.000790
2.265451 0.270550 0.000801
2.290900 0.737492 0.000789
2.265319 0.265404 0.000801
2.286201 0.670177 0.000791
2.286201 0.670177 0.000791
2.265805 0.276744 0.000801
