ply
		format ascii 1.0
		element vertex 51309
		property float32 x
		property float32 y
		property float32 z
		property uchar blue
		property uchar green
		property uchar red
		end_header
301.70 213.63 -867.58 148 153 156
286.91 210.77 -855.97 197 197 201
276.15 210.77 -855.97 160 170 174
265.40 210.77 -855.97 50 61 72
255.79 211.72 -859.81 117 137 156
246.09 212.67 -863.67 79 99 118
235.24 212.67 -863.67 95 119 138
227.46 215.58 -875.49 117 148 193
297.96 296.75 -1205.15 82 118 172
281.06 294.90 -1197.63 132 123 119
186.79 207.08 -840.98 97 91 88
184.30 216.56 -879.50 178 214 253
234.46 293.07 -1190.21 198 226 254
220.87 294.90 -1197.63 150 173 232
147.77 211.72 -859.81 142 162 191
188.43 291.27 -1182.88 184 211 252
174.65 293.07 -1190.21 155 191 243
159.69 293.07 -1190.21 16 20 36
142.97 289.48 -1175.63 112 142 190
128.20 289.48 -1175.63 95 128 178
112.74 287.72 -1168.48 84 116 169
98.06 287.72 -1168.48 91 122 173
83.38 287.72 -1168.48 100 129 178
68.29 285.98 -1161.41 9 12 16
54.02 287.72 -1168.48 3 5 10
39.83 291.27 -1182.88 1 5 19
25.28 294.90 -1197.63 20 21 27
10.23 294.90 -1197.63 6 9 12
587.73 225.41 -917.31 88 98 116
602.10 235.54 -958.51 23 30 49
631.00 251.88 -1025.03 52 59 72
537.75 219.13 -891.75 25 32 50
539.06 224.34 -912.95 157 153 160
522.62 222.23 -904.35 114 111 114
511.26 222.23 -904.35 126 124 125
499.90 222.23 -904.35 115 110 112
486.25 221.19 -900.11 122 117 118
474.94 221.19 -900.11 125 123 122
461.47 220.16 -895.91 6 7 11
448.12 219.13 -891.75 10 10 25
428.95 215.14 -875.49 41 41 249
416.06 214.16 -871.51 41 39 80
403.28 213.19 -867.58 21 21 163
392.38 213.19 -867.58 77 75 255
379.76 212.23 -863.67 22 27 222
368.91 212.23 -863.67 15 19 191
358.06 212.23 -863.67 52 51 181
348.78 213.19 -867.58 17 20 29
339.42 214.16 -871.51 17 20 26
329.96 215.14 -875.49 105 120 136
317.52 214.16 -871.51 102 114 126
303.81 212.23 -863.67 109 110 109
292.96 212.23 -863.67 27 28 32
279.60 210.34 -855.97 69 70 72
268.84 210.34 -855.97 63 70 82
258.09 210.34 -855.97 92 106 131
248.44 211.28 -859.81 78 90 95
238.71 212.23 -863.67 118 138 157
229.93 214.16 -871.51 89 111 148
297.21 290.67 -1182.88 114 145 194
214.85 221.19 -900.11 51 52 54
190.18 206.66 -840.98 182 172 164
187.84 216.12 -879.50 189 221 254
177.60 217.12 -883.54 7 31 88
222.91 290.67 -1182.88 191 219 252
151.23 211.28 -859.81 162 162 202
194.39 292.47 -1190.21 191 214 248
178.33 290.67 -1182.88 188 213 251
164.48 292.47 -1190.21 21 32 71
147.70 288.89 -1175.63 114 145 194
132.93 288.89 -1175.63 94 126 177
117.44 287.14 -1168.48 84 116 169
102.76 287.14 -1168.48 95 125 174
88.08 287.14 -1168.48 96 128 175
72.95 285.40 -1161.41 33 63 124
58.36 285.40 -1161.41 82 72 73
44.58 290.67 -1182.88 10 13 21
29.72 290.67 -1182.88 50 44 38
15.05 294.30 -1197.63 12 13 20
591.42 224.95 -917.31 141 147 163
654.99 254.08 -1036.09 27 33 48
682.48 270.11 -1101.46 51 57 71
543.86 219.71 -895.91 26 33 51
542.73 223.88 -912.95 112 112 121
526.26 221.77 -904.35 190 177 168
514.90 221.77 -904.35 121 120 121
503.54 221.77 -904.35 126 121 120
489.87 220.73 -900.11 130 125 126
478.56 220.73 -900.11 133 130 133
465.07 219.71 -895.91 34 37 44
451.71 218.68 -891.75 7 9 13
432.47 214.70 -875.49 34 38 245
421.47 214.70 -875.49 10 8 108
408.61 213.72 -871.51 12 12 41
395.87 212.76 -867.58 84 80 255
384.97 212.76 -867.58 30 34 231
372.39 211.80 -863.67 21 23 198
361.54 211.80 -863.67 50 48 187
352.27 212.76 -867.58 23 24 36
342.92 213.72 -871.51 32 38 45
333.48 214.70 -875.49 26 33 43
321.02 213.72 -871.51 42 50 62
308.67 212.76 -867.58 30 34 39
297.77 212.76 -867.58 31 36 40
283.04 209.91 -855.97 78 78 85
273.50 210.85 -859.81 8 11 12
261.53 209.91 -855.97 91 115 141
251.90 210.85 -859.81 94 110 135
242.18 211.80 -863.67 51 68 81
232.38 212.76 -867.58 55 76 99
223.50 214.70 -875.49 126 150 192
292.51 295.54 -1205.15 122 116 121
239.76 255.46 -1041.71 119 113 120
182.99 206.23 -840.98 81 94 118
180.32 215.68 -879.50 179 214 254
227.66 290.08 -1182.88 199 226 254
214.12 291.88 -1190.21 164 196 244
143.88 210.85 -859.81 63 75 103
183.08 290.08 -1182.88 187 213 254
169.26 291.88 -1190.21 40 65 122
153.36 290.08 -1182.88 90 104 138
137.65 288.30 -1175.63 97 129 181
122.14 286.55 -1168.48 93 125 175
107.46 286.55 -1168.48 87 116 168
92.78 286.55 -1168.48 94 125 175
78.10 286.55 -1168.48 93 125 175
62.65 283.10 -1154.43 90 80 82
48.74 286.55 -1168.48 5 6 9
34.48 290.08 -1182.88 4 3 7
19.86 293.70 -1197.63 11 14 22
4.81 293.70 -1197.63 6 9 11
586.39 225.57 -921.71 87 103 121
606.85 238.14 -973.09 40 46 68
555.23 222.37 -908.63 27 34 52
546.40 223.42 -912.95 191 186 188
532.40 222.37 -908.63 170 174 184
518.53 221.32 -904.35 126 122 121
507.17 221.32 -904.35 124 120 119
493.49 220.28 -900.11 125 121 120
482.18 220.28 -900.11 122 118 118
470.87 220.28 -900.11 71 66 69
455.29 218.24 -891.75 6 7 12
435.99 214.26 -875.49 33 40 242
424.99 214.26 -875.49 25 30 163
412.12 213.28 -871.51 37 35 84
401.17 213.28 -871.51 92 89 255
388.46 212.32 -867.58 63 60 250
375.86 211.37 -863.67 21 26 207
365.01 211.37 -863.67 51 51 193
354.16 211.37 -863.67 29 29 119
344.86 212.32 -867.58 12 15 21
337.00 214.26 -875.49 21 23 31
326.00 214.26 -875.49 122 138 151
313.58 213.28 -871.51 45 52 59
301.26 212.32 -867.58 116 120 122
286.48 209.48 -855.97 198 199 203
275.72 209.48 -855.97 196 197 202
264.97 209.48 -855.97 42 52 62
255.36 210.42 -859.81 54 71 98
245.65 211.37 -863.67 64 84 109
234.80 211.37 -863.67 118 142 164
228.06 215.24 -879.50 117 146 193
297.36 294.93 -1205.15 53 82 138
280.46 293.10 -1197.63 129 123 124
186.37 205.81 -840.98 76 75 78
183.86 215.24 -879.50 191 222 254
233.86 291.28 -1190.21 200 226 254
216.23 287.71 -1175.63 195 225 255
147.34 210.42 -859.81 181 193 213
187.84 289.48 -1182.88 185 213 254
174.05 291.28 -1190.21 85 128 194
159.10 291.28 -1190.21 117 134 171
142.38 287.71 -1175.63 106 138 187
127.61 287.71 -1175.63 94 124 175
112.15 285.96 -1168.48 86 114 165
97.47 285.96 -1168.48 92 122 172
82.79 285.96 -1168.48 98 129 175
67.70 284.23 -1161.41 8 13 26
53.43 285.96 -1168.48 4 5 10
39.23 289.48 -1182.88 4 3 12
24.68 293.10 -1197.63 17 16 22
9.57 291.28 -1190.21 9 11 16
587.27 224.03 -917.31 89 98 117
598.63 232.93 -953.75 26 33 49
614.09 243.83 -998.38 55 60 75
532.36 215.78 -883.54 55 67 96
536.06 221.91 -908.63 190 185 186
522.17 220.87 -904.35 127 125 126
510.81 220.87 -904.35 128 121 123
499.45 220.87 -904.35 112 109 109
485.80 219.83 -900.11 116 113 113
474.49 219.83 -900.11 128 126 128
458.88 217.79 -891.75 5 8 14
447.68 217.79 -891.75 7 7 17
428.51 213.82 -875.49 33 37 247
415.62 212.85 -871.51 36 34 143
404.67 212.85 -871.51 157 150 255
391.94 211.88 -867.58 78 74 255
381.04 211.88 -867.58 33 32 211
368.48 210.93 -863.67 43 44 195
357.63 210.93 -863.67 42 44 174
348.35 211.88 -867.58 11 14 18
338.98 212.85 -871.51 19 25 32
329.52 213.82 -875.49 141 154 168
317.08 212.85 -871.51 55 64 78
303.38 210.93 -863.67 154 151 149
291.22 209.99 -859.81 17 18 21
279.17 209.05 -855.97 135 143 151
268.41 209.05 -855.97 52 60 71
257.66 209.05 -855.97 113 134 162
246.90 209.05 -855.97 168 176 179
238.27 210.93 -863.67 59 76 91
229.49 212.85 -871.51 92 111 148
300.32 292.49 -1197.63 112 144 192
229.46 235.27 -963.32 34 34 37
189.75 205.39 -840.98 170 161 155
187.39 214.80 -879.50 182 214 249
177.16 215.78 -883.54 8 23 61
222.31 288.89 -1182.88 196 224 254
150.79 209.99 -859.81 190 182 207
192.59 288.89 -1182.88 182 201 223
177.73 288.89 -1182.88 185 214 254
163.88 290.68 -1190.21 89 111 155
147.11 287.12 -1175.63 115 145 191
132.34 287.12 -1175.63 95 127 175
116.85 285.37 -1168.48 81 111 166
102.17 285.37 -1168.48 94 122 171
87.49 285.37 -1168.48 90 122 173
72.37 283.65 -1161.41 6 21 73
57.78 283.65 -1161.41 79 70 73
43.99 288.89 -1182.88 52 51 56
29.13 288.89 -1182.88 63 56 62
14.35 290.68 -1190.21 9 12 16
590.96 223.57 -917.31 130 126 123
654.47 252.52 -1036.09 24 35 53
702.06 276.38 -1133.98 59 66 81
545.96 219.38 -900.11 24 34 51
542.27 222.51 -912.95 145 142 150
528.29 221.45 -908.63 130 130 133
514.44 220.41 -904.35 120 118 120
503.08 220.41 -904.35 117 115 116
489.42 219.38 -900.11 126 120 121
478.11 219.38 -900.11 119 115 118
464.62 218.35 -895.91 40 43 49
451.26 217.34 -891.75 4 6 10
432.03 213.38 -875.49 27 38 243
421.03 213.38 -875.49 17 20 164
408.17 212.41 -871.51 12 14 94
395.43 211.45 -867.58 88 83 255
384.53 211.45 -867.58 41 39 227
371.95 210.50 -863.67 66 60 202
361.10 210.50 -863.67 51 51 169
351.83 211.45 -867.58 25 27 36
342.48 212.41 -871.51 26 29 31
333.04 213.38 -875.49 20 26 35
320.58 212.41 -871.51 52 67 81
309.63 212.41 -871.51 17 19 22
297.34 211.45 -867.58 57 60 61
282.61 208.62 -855.97 187 189 190
273.07 209.56 -859.81 11 13 16
261.10 208.62 -855.97 64 80 108
250.35 208.62 -855.97 217 218 220
241.75 210.50 -863.67 55 73 90
231.94 211.45 -867.58 84 105 121
295.90 283.06 -1161.41 147 169 207
208.26 209.56 -859.81 33 42 60
232.91 247.18 -1014.20 121 114 119
182.57 204.97 -840.98 77 88 114
179.88 214.35 -879.50 192 222 254
227.07 288.30 -1182.88 199 227 255
210.91 286.53 -1175.63 193 221 252
143.45 209.56 -859.81 36 44 59
182.49 288.30 -1182.88 184 212 251
168.67 290.08 -1190.21 92 120 170
152.77 288.30 -1182.88 114 134 175
137.06 286.53 -1175.63 94 126 176
122.29 286.53 -1175.63 91 124 174
106.87 284.79 -1168.48 91 121 169
92.19 284.79 -1168.48 94 126 173
77.51 284.79 -1168.48 89 120 170
62.07 281.36 -1154.43 62 63 73
48.15 284.79 -1168.48 10 11 15
33.88 288.30 -1182.88 4 4 6
19.26 291.89 -1197.63 10 14 18
4.21 291.89 -1197.63 8 9 13
704.23 269.44 -1107.81 33 38 51
732.57 285.94 -1175.63 61 65 81
554.78 221.00 -908.63 25 34 51
545.94 222.05 -912.95 139 127 125
531.95 221.00 -908.63 171 165 157
518.08 219.96 -904.35 120 115 116
506.72 219.96 -904.35 103 100 103
495.36 219.96 -904.35 115 113 113
481.73 218.93 -900.11 114 110 112
468.22 217.90 -895.91 94 92 95
454.85 216.89 -891.75 7 7 13
435.55 212.94 -875.49 34 42 239
424.55 212.94 -875.49 97 100 226
411.68 211.97 -871.51 139 127 225
398.92 211.01 -867.58 93 85 255
388.02 211.01 -867.58 73 67 238
375.42 210.06 -863.67 20 24 192
364.57 210.06 -863.67 54 52 185
355.32 211.01 -867.58 27 30 37
344.42 211.01 -867.58 18 21 24
336.56 212.94 -875.49 17 21 25
324.09 211.97 -871.51 61 71 85
313.14 211.97 -871.51 54 61 70
300.82 211.01 -867.58 64 67 68
286.05 208.19 -855.97 197 196 198
276.53 209.12 -859.81 122 135 147
264.54 208.19 -855.97 61 66 74
254.92 209.12 -859.81 102 125 152
245.22 210.06 -863.67 73 96 122
234.37 210.06 -863.67 119 142 158
227.61 213.91 -879.50 106 138 188
296.75 293.12 -1205.15 55 77 125
279.85 291.29 -1197.63 122 128 139
185.95 204.54 -840.98 60 60 72
182.53 213.91 -879.50 163 201 246
230.64 287.70 -1182.88 194 225 255
214.45 285.94 -1175.63 197 224 253
146.04 209.12 -859.81 69 86 121
186.05 287.70 -1182.88 180 207 244
172.26 289.48 -1190.21 107 135 187
156.33 287.70 -1182.88 122 144 182
140.61 285.94 -1175.63 100 132 181
125.84 285.94 -1175.63 93 124 174
110.39 284.20 -1168.48 88 117 168
95.71 284.20 -1168.48 92 121 170
81.03 284.20 -1168.48 97 123 173
65.95 282.48 -1161.41 19 17 25
51.67 284.20 -1168.48 5 4 7
37.45 287.70 -1182.88 4 4 8
22.87 291.29 -1197.63 18 19 25
7.78 289.48 -1190.21 12 12 13
585.89 222.65 -917.31 82 91 101
740.65 287.11 -1182.88 56 63 78
588.13 232.65 -958.51 24 31 45
551.32 222.65 -917.31 175 172 175
534.69 220.54 -908.63 190 179 171
520.81 219.50 -904.35 120 113 112
509.44 219.50 -904.35 103 101 103
498.08 219.50 -904.35 116 113 114
484.44 218.47 -900.11 113 111 113
473.13 218.47 -900.11 128 126 127
457.54 216.44 -891.75 9 10 14
444.27 215.44 -887.63 7 9 17
427.19 212.50 -875.49 23 26 175
414.31 211.53 -871.51 59 58 235
403.36 211.53 -871.51 96 89 255
390.64 210.58 -867.58 71 68 245
378.03 209.63 -863.67 53 52 205
367.18 209.63 -863.67 44 45 183
357.94 210.58 -867.58 27 29 42
347.04 210.58 -867.58 14 14 20
339.20 212.50 -875.49 24 27 35
326.72 211.53 -871.51 97 111 127
315.77 211.53 -871.51 96 103 113
303.44 210.58 -867.58 70 71 74
289.92 208.69 -859.81 25 27 32
277.88 207.76 -855.97 88 97 109
265.94 206.84 -852.18 91 100 108
257.52 208.69 -859.81 100 120 145
244.52 206.84 -852.18 205 210 213
236.97 209.63 -863.67 81 98 114
229.22 212.50 -875.49 117 142 185
300.39 292.51 -1205.15 127 151 189
232.68 238.60 -983.05 21 22 35
188.48 204.12 -840.98 223 214 210
186.07 213.47 -879.50 145 186 240
238.33 290.69 -1197.63 156 179 194
220.53 287.11 -1182.88 197 226 255
149.50 208.69 -859.81 73 75 122
190.81 287.11 -1182.88 189 219 250
175.95 287.11 -1182.88 178 203 242
161.09 287.11 -1182.88 130 152 193
145.33 285.35 -1175.63 112 141 189
130.56 285.35 -1175.63 92 127 176
115.09 283.61 -1168.48 80 110 165
100.41 283.61 -1168.48 89 121 171
85.73 283.61 -1168.48 91 122 171
70.62 281.90 -1161.41 13 17 28
56.03 281.90 -1161.41 33 36 48
42.20 287.11 -1182.88 10 19 39
27.34 287.11 -1182.88 75 69 69
12.56 288.89 -1190.21 11 12 16
589.58 222.19 -917.31 87 94 112
656.45 252.32 -1041.71 28 37 55
726.07 284.76 -1175.63 46 52 65
544.60 218.02 -900.11 24 35 59
538.34 220.08 -908.63 196 189 188
526.92 220.08 -908.63 121 119 120
513.08 219.05 -904.35 106 105 105
501.72 219.05 -904.35 104 102 102
488.06 218.02 -900.11 112 109 109
476.75 218.02 -900.11 115 111 112
463.27 217.00 -895.91 30 35 41
449.92 216.00 -891.75 5 6 10
430.71 212.06 -875.49 37 42 244
419.71 212.06 -875.49 11 14 146
406.86 211.09 -871.51 176 168 245
394.12 210.14 -867.58 86 80 255
383.22 210.14 -867.58 17 23 204
370.65 209.20 -863.67 36 41 188
359.80 209.20 -863.67 45 44 132
350.53 210.14 -867.58 22 27 29
341.17 211.09 -871.51 15 18 24
331.72 212.06 -875.49 61 68 81
319.27 211.09 -871.51 61 75 90
308.32 211.09 -871.51 98 95 95
296.03 210.14 -867.58 78 74 78
281.32 207.33 -855.97 197 199 203
270.56 207.33 -855.97 57 66 79
259.81 207.33 -855.97 58 73 91
249.06 207.33 -855.97 70 69 62
239.37 208.26 -859.81 82 100 116
231.68 211.09 -871.51 93 114 135
275.80 263.77 -1088.97 104 133 177
206.96 208.26 -859.81 68 68 75
199.74 212.06 -875.49 117 141 167
182.10 204.60 -844.68 72 84 109
178.55 213.03 -879.50 178 212 251
221.20 281.31 -1161.41 182 219 255
153.64 209.20 -863.67 156 193 234
142.15 208.26 -859.81 94 118 153
180.70 286.51 -1182.88 185 217 248
165.84 286.51 -1182.88 141 163 205
150.06 284.76 -1175.63 109 138 188
135.29 284.76 -1175.63 93 125 176
120.52 284.76 -1175.63 92 121 172
105.11 283.03 -1168.48 92 121 172
90.43 283.03 -1168.48 92 120 172
75.75 283.03 -1168.48 75 107 161
60.33 279.62 -1154.43 42 34 30
46.67 284.76 -1175.63 9 18 41
32.10 286.51 -1182.88 2 4 4
17.45 290.09 -1197.63 11 13 18
2.39 288.29 -1190.21 8 8 13
694.55 264.72 -1095.18 23 28 45
730.80 284.17 -1175.63 56 59 74
566.82 224.95 -930.64 21 27 42
544.57 220.67 -912.95 103 94 88
530.58 219.63 -908.63 132 128 131
516.72 218.59 -904.35 118 113 115
505.35 218.59 -904.35 101 100 103
493.99 218.59 -904.35 115 112 113
480.37 217.57 -900.11 114 106 108
469.06 217.57 -900.11 101 101 101
453.50 215.55 -891.75 5 8 9
434.23 211.62 -875.49 34 44 238
423.23 211.62 -875.49 35 38 242
410.36 210.66 -871.51 89 89 253
397.61 209.71 -867.58 88 84 255
386.71 209.71 -867.58 83 74 223
374.12 208.76 -863.67 58 58 193
363.27 208.76 -863.67 43 43 162
354.01 209.71 -867.58 27 32 39
344.67 210.66 -871.51 167 179 190
335.24 211.62 -875.49 19 23 29
322.77 210.66 -871.51 41 53 67
311.82 210.66 -871.51 132 135 144
299.52 209.71 -867.58 99 97 97
284.76 206.90 -855.97 198 199 200
275.23 207.83 -859.81 126 142 159
264.43 207.83 -859.81 62 65 70
253.63 207.83 -859.81 127 141 159
243.92 208.76 -863.67 68 83 103
233.07 208.76 -863.67 79 101 125
239.45 224.95 -930.64 81 109 156
294.93 291.30 -1205.15 120 115 120
272.94 284.17 -1175.63 145 171 201
184.68 203.28 -840.98 174 171 166
182.09 212.59 -879.50 182 216 252
227.24 282.44 -1168.48 176 212 254
212.56 282.44 -1168.48 189 222 255
145.61 207.83 -859.81 106 112 123
185.46 285.92 -1182.88 184 217 252
170.60 285.92 -1182.88 185 212 245
155.74 285.92 -1182.88 133 157 199
140.02 284.17 -1175.63 98 130 180
125.25 284.17 -1175.63 92 123 172
109.80 282.44 -1168.48 81 111 162
95.12 282.44 -1168.48 90 119 170
80.44 282.44 -1168.48 91 123 173
65.37 280.73 -1161.41 56 50 52
51.09 282.44 -1168.48 3 4 7
36.85 285.92 -1182.88 3 5 6
22.27 289.48 -1197.63 18 18 22
7.18 287.69 -1190.21 11 11 16
745.73 281.85 -1168.48 24 28 44
740.06 285.32 -1182.88 51 55 70
584.73 230.06 -953.75 21 28 43
548.24 220.21 -912.95 145 131 126
534.23 219.17 -908.63 126 116 112
520.35 218.14 -904.35 113 110 109
508.99 218.14 -904.35 96 95 97
497.63 218.14 -904.35 110 108 108
483.99 217.12 -900.11 118 113 115
472.68 217.12 -900.11 125 121 122
457.09 215.10 -891.75 12 14 18
443.82 214.11 -887.63 7 8 17
426.75 211.18 -875.49 46 49 205
413.87 210.22 -871.51 67 66 208
402.92 210.22 -871.51 86 83 255
390.20 209.27 -867.58 70 66 231
379.30 209.27 -867.58 19 22 188
366.74 208.33 -863.67 43 42 169
357.50 209.27 -867.58 14 17 19
346.60 209.27 -867.58 70 66 67
338.76 211.18 -875.49 21 27 32
326.28 210.22 -871.51 64 75 84
316.77 211.18 -875.49 112 122 132
303.00 209.27 -867.58 113 115 119
289.49 207.40 -859.81 37 39 44
278.69 207.40 -859.81 67 80 90
265.51 205.55 -852.18 69 72 77
255.94 206.47 -855.97 78 91 113
246.28 207.40 -859.81 80 88 101
235.48 207.40 -859.81 82 99 112
229.82 212.14 -879.50 51 67 96
299.78 290.70 -1205.15 127 151 187
261.65 267.22 -1107.81 43 37 37
188.06 202.85 -840.98 209 200 194
185.63 212.14 -879.50 188 218 254
233.36 283.58 -1175.63 175 206 237
217.26 281.85 -1168.48 182 217 255
149.07 207.40 -859.81 85 85 104
190.22 285.32 -1182.88 182 213 248
175.35 285.32 -1182.88 186 218 250
160.49 285.32 -1182.88 165 196 233
144.74 283.58 -1175.63 109 141 186
129.97 283.58 -1175.63 95 124 176
114.50 281.85 -1168.48 77 108 161
99.82 281.85 -1168.48 87 119 168
85.14 281.85 -1168.48 94 121 171
70.04 280.15 -1161.41 11 17 34
55.45 280.15 -1161.41 10 14 28
41.61 285.32 -1182.88 11 13 26
26.75 285.32 -1182.88 68 59 55
11.96 287.09 -1190.21 11 12 16
589.12 220.80 -917.31 83 88 96
740.25 282.99 -1175.63 46 51 66
729.95 284.73 -1182.88 47 51 66
554.54 220.80 -917.31 184 185 190
537.88 218.71 -908.63 198 192 189
526.47 218.71 -908.63 117 114 113
512.63 217.68 -904.35 100 99 99
501.26 217.68 -904.35 93 92 93
487.61 216.66 -900.11 91 87 88
476.30 216.66 -900.11 114 113 113
462.82 215.65 -895.91 43 46 52
449.47 214.65 -891.75 9 7 12
430.27 210.74 -875.49 36 43 234
419.27 210.74 -875.49 36 40 228
406.42 209.78 -871.51 83 78 255
393.69 208.83 -867.58 81 73 241
382.79 208.83 -867.58 76 70 203
370.22 207.89 -863.67 38 40 177
360.99 208.83 -867.58 28 30 37
350.09 208.83 -867.58 14 19 22
340.73 209.78 -871.51 18 22 27
331.28 210.74 -875.49 77 88 99
318.83 209.78 -871.51 110 118 129
307.88 209.78 -871.51 177 177 180
295.59 208.83 -867.58 120 117 114
280.89 206.04 -855.97 188 190 190
270.13 206.04 -855.97 48 60 72
260.54 206.96 -859.81 88 100 111
247.52 205.13 -852.18 206 206 203
238.94 206.96 -859.81 81 100 125
231.24 209.78 -871.51 102 122 142
260.49 248.06 -1030.53 59 77 112
207.46 207.89 -863.67 64 65 67
192.29 203.32 -844.68 184 211 237
181.67 203.32 -844.68 80 93 116
178.11 211.70 -879.50 181 217 253
221.96 281.26 -1168.48 176 215 254
153.21 207.89 -863.67 38 60 104
141.72 206.96 -859.81 73 95 125
180.11 284.73 -1182.88 177 213 248
165.25 284.73 -1182.88 179 213 247
149.47 282.99 -1175.63 86 108 147
134.70 282.99 -1175.63 96 127 176
119.93 282.99 -1175.63 87 118 171
104.52 281.26 -1168.48 93 118 170
89.84 281.26 -1168.48 88 120 170
75.16 281.26 -1168.48 65 99 155
59.75 277.88 -1154.43 66 58 56
46.08 282.99 -1175.63 15 14 18
31.50 284.73 -1182.88 6 3 5
16.75 286.49 -1190.21 10 12 15
1.79 286.49 -1190.21 7 10 12
744.98 282.39 -1175.63 37 42 61
730.21 282.39 -1175.63 55 59 76
566.35 223.55 -930.64 21 28 44
544.11 219.30 -912.95 92 87 94
530.12 218.26 -908.63 123 118 120
518.70 218.26 -908.63 92 89 91
504.90 217.23 -904.35 84 85 89
493.54 217.23 -904.35 103 102 103
479.92 216.21 -900.11 120 115 115
468.61 216.21 -900.11 102 97 99
453.05 214.20 -891.75 5 8 12
433.79 210.30 -875.49 38 45 213
422.79 210.30 -875.49 32 35 234
409.93 209.34 -871.51 196 190 254
397.18 208.40 -867.58 88 81 248
386.28 208.40 -867.58 29 32 205
373.69 207.46 -863.67 23 29 174
364.48 208.40 -867.58 28 29 66
353.58 208.40 -867.58 28 32 39
344.23 209.34 -871.51 33 35 41
334.80 210.30 -875.49 18 23 32
322.34 209.34 -871.51 74 83 93
311.39 209.34 -871.51 141 145 151
299.08 208.40 -867.58 97 96 95
284.33 205.61 -855.97 159 167 169
274.80 206.53 -859.81 104 122 140
264.00 206.53 -859.81 44 51 57
252.07 205.61 -855.97 167 173 180
241.31 205.61 -855.97 105 114 123
233.68 208.40 -867.58 66 88 105
309.47 289.48 -1205.15 121 143 177
292.49 287.68 -1197.63 125 124 131
279.19 289.48 -1205.15 185 209 235
184.26 202.01 -840.98 139 136 129
181.65 211.26 -879.50 181 216 253
226.66 280.68 -1168.48 178 214 254
210.69 278.98 -1161.41 177 215 254
145.18 206.53 -859.81 229 241 248
184.87 284.13 -1182.88 181 216 251
170.01 284.13 -1182.88 177 212 248
155.14 284.13 -1182.88 180 211 245
139.43 282.39 -1175.63 95 128 177
124.66 282.39 -1175.63 91 119 170
109.22 280.68 -1168.48 80 109 163
94.54 280.68 -1168.48 89 119 168
79.86 280.68 -1168.48 93 122 172
64.78 278.98 -1161.41 88 82 80
50.50 280.68 -1168.48 2 5 6
36.26 284.13 -1182.88 2 4 5
21.67 287.68 -1197.63 17 16 18
6.58 285.90 -1190.21 11 13 15
740.64 278.40 -1161.41 24 29 44
744.05 285.30 -1190.21 50 56 71
584.25 228.62 -953.75 22 27 40
547.78 218.84 -912.95 144 140 142
533.77 217.80 -908.63 117 114 114
522.36 217.80 -908.63 93 90 91
508.54 216.78 -904.35 83 83 84
497.17 216.78 -904.35 96 96 99
483.54 215.76 -900.11 100 99 101
472.23 215.76 -900.11 119 116 118
458.77 214.75 -895.91 25 28 31
443.38 212.77 -887.63 8 7 14
426.31 209.86 -875.49 50 43 249
413.43 208.90 -871.51 74 71 225
402.48 208.90 -871.51 90 85 254
389.76 207.96 -867.58 71 65 219
378.86 207.96 -867.58 49 49 187
366.31 207.03 -863.67 39 43 169
357.07 207.96 -867.58 36 44 57
347.74 208.90 -871.51 73 61 57
338.32 209.86 -875.49 28 31 35
327.32 209.86 -875.49 71 82 94
314.89 208.90 -871.51 81 88 100
302.57 207.96 -867.58 126 130 130
289.06 206.10 -859.81 69 71 72
278.26 206.10 -859.81 76 92 108
265.08 204.27 -852.18 154 146 146
256.65 206.10 -859.81 84 91 109
244.75 205.18 -855.97 90 100 114
236.10 207.03 -863.67 76 94 113
314.31 288.88 -1205.15 134 171 216
299.17 288.88 -1205.15 101 127 164
284.03 288.88 -1205.15 110 99 95
187.64 201.59 -840.98 192 182 178
185.18 210.82 -879.50 181 215 251
231.35 280.09 -1168.48 181 214 248
216.67 280.09 -1168.48 175 213 254
148.63 206.10 -859.81 158 156 162
189.62 283.54 -1182.88 187 217 244
174.76 283.54 -1182.88 182 215 250
159.90 283.54 -1182.88 181 211 247
144.15 281.80 -1175.63 104 135 185
129.38 281.80 -1175.63 92 123 174
113.91 280.09 -1168.48 76 108 159
99.24 280.09 -1168.48 85 115 164
84.56 280.09 -1168.48 92 119 170
69.45 278.40 -1161.41 23 37 64
55.20 280.09 -1168.48 4 4 14
41.02 283.54 -1182.88 5 9 20
26.15 283.54 -1182.88 60 49 44
11.36 285.30 -1190.21 12 13 17
778.25 290.09 -1212.76 23 29 46
730.72 277.81 -1161.41 52 54 69
724.89 281.21 -1175.63 49 53 67
554.08 219.42 -917.31 140 128 120
537.43 217.34 -908.63 138 126 119
526.01 217.34 -908.63 113 107 108
512.17 216.32 -904.35 94 90 94
500.81 216.32 -904.35 101 101 103
489.45 216.32 -904.35 115 112 115
475.85 215.31 -900.11 120 115 114
462.37 214.30 -895.91 48 52 56
446.95 212.32 -887.63 5 8 12
429.83 209.42 -875.49 18 20 104
418.83 209.42 -875.49 44 44 246
405.99 208.47 -871.51 83 76 255
393.25 207.53 -867.58 73 67 227
382.35 207.53 -867.58 24 27 183
369.78 206.59 -863.67 35 33 150
360.55 207.53 -867.58 27 30 37
349.65 207.53 -867.58 11 14 18
340.29 208.47 -871.51 19 24 32
330.84 209.42 -875.49 72 82 92
319.85 209.42 -875.49 81 92 102
307.44 208.47 -871.51 168 189 210
295.16 207.53 -867.58 109 103 103
281.71 205.67 -859.81 79 96 107
269.70 204.75 -855.97 59 69 78
258.95 204.75 -855.97 170 173 174
247.09 203.84 -852.18 185 195 200
236.39 203.84 -852.18 134 148 158
230.80 208.47 -871.51 109 129 146
304.02 288.27 -1205.15 136 174 216
207.96 207.53 -867.58 45 48 51
191.86 202.05 -844.68 186 216 248
181.25 202.05 -844.68 85 97 122
177.67 210.38 -879.50 177 212 250
220.03 277.81 -1161.41 180 216 255
152.77 206.59 -863.67 102 104 111
141.29 205.67 -859.81 105 134 166
179.52 282.95 -1182.88 182 215 249
164.66 282.95 -1182.88 183 214 249
148.88 281.21 -1175.63 99 122 152
134.11 281.21 -1175.63 92 124 175
119.34 281.21 -1175.63 84 115 167
103.93 279.50 -1168.48 90 118 167
89.25 279.50 -1168.48 90 121 170
74.57 279.50 -1168.48 54 85 145
59.53 277.81 -1161.41 82 71 77
45.49 281.21 -1175.63 52 50 45
30.91 282.95 -1182.88 3 4 5
16.15 284.70 -1190.21 9 13 17
1.20 284.70 -1190.21 8 11 13
763.07 287.67 -1205.15 54 55 71
729.62 280.62 -1175.63 54 59 73
565.88 222.14 -930.64 24 34 56
543.65 217.92 -912.95 122 121 139
529.66 216.89 -908.63 120 115 117
518.25 216.89 -908.63 91 88 92
504.45 215.87 -904.35 102 104 108
493.08 215.87 -904.35 127 128 129
479.47 214.85 -900.11 128 127 127
468.16 214.85 -900.11 102 100 101
452.61 212.86 -891.75 10 10 15
433.35 208.98 -875.49 14 19 101
422.35 208.98 -875.49 27 34 232
409.49 208.03 -871.51 84 78 255
398.54 208.03 -871.51 79 72 235
385.84 207.09 -867.58 50 47 192
373.25 206.16 -863.67 50 49 179
364.04 207.09 -867.58 27 31 37
353.14 207.09 -867.58 54 55 57
343.80 208.03 -871.51 25 27 32
334.36 208.98 -875.49 15 16 22
321.90 208.03 -871.51 97 106 116
310.95 208.03 -871.51 217 217 215
298.64 207.09 -867.58 104 100 101
283.90 204.32 -855.97 189 192 193
274.37 205.23 -859.81 103 118 136
263.56 205.23 -859.81 60 66 69
250.52 203.41 -852.18 20 25 32
239.81 203.41 -852.18 117 122 136
233.25 207.09 -867.58 96 118 135
308.86 287.67 -1205.15 136 178 222
291.89 285.87 -1197.63 132 125 126
278.58 287.67 -1205.15 136 149 172
183.84 200.74 -840.98 101 96 94
181.21 209.93 -879.50 179 214 252
226.07 278.92 -1168.48 176 213 255
210.11 277.23 -1161.41 178 214 254
144.74 205.23 -859.81 192 211 227
184.27 282.35 -1182.88 181 215 249
169.41 282.35 -1182.88 181 214 247
154.55 282.35 -1182.88 179 210 245
138.83 280.62 -1175.63 93 126 174
124.06 280.62 -1175.63 85 115 167
108.63 278.92 -1168.48 80 108 162
93.95 278.92 -1168.48 84 117 167
79.27 278.92 -1168.48 87 119 168
64.20 277.23 -1161.41 88 80 84
49.91 278.92 -1168.48 6 6 7
35.67 282.35 -1182.88 4 4 7
20.93 284.10 -1190.21 21 21 18
5.98 284.10 -1190.21 11 12 17
772.77 288.87 -1212.76 52 56 70
748.08 285.27 -1197.63 60 62 76
586.68 228.31 -958.51 21 29 37
547.32 217.46 -912.95 166 164 167
533.32 216.43 -908.63 123 119 121
521.90 216.43 -908.63 93 92 95
508.08 215.41 -904.35 92 92 98
496.72 215.41 -904.35 96 95 101
483.08 214.40 -900.11 131 127 128
471.78 214.40 -900.11 118 113 115
458.32 213.40 -895.91 29 30 35
442.93 211.43 -887.63 6 6 11
425.87 208.54 -875.49 27 30 230
412.99 207.59 -871.51 68 67 255
402.04 207.59 -871.51 84 78 244
389.33 206.65 -867.58 56 52 207
378.43 206.65 -867.58 51 46 174
367.53 206.65 -867.58 21 23 35
356.63 206.65 -867.58 20 24 32
347.30 207.59 -871.51 38 41 42
337.88 208.54 -875.49 12 16 20
326.88 208.54 -875.49 93 102 116
314.45 207.59 -871.51 71 77 81
302.13 206.65 -867.58 86 87 89
288.62 204.80 -859.81 198 199 200
277.82 204.80 -859.81 88 108 123
264.65 202.98 -852.18 118 113 113
255.08 203.89 -855.97 135 140 148
243.24 202.98 -852.18 147 157 165
235.67 205.72 -863.67 70 88 108
300.51 274.98 -1154.43 117 141 176
298.57 287.06 -1205.15 128 172 221
283.43 287.06 -1205.15 132 124 123
187.22 200.32 -840.98 181 172 166
184.74 209.49 -879.50 183 215 252
229.37 276.64 -1161.41 178 211 251
214.78 276.64 -1161.41 183 218 255
148.20 204.80 -859.81 108 111 142
189.03 281.76 -1182.88 180 215 248
174.17 281.76 -1182.88 183 215 249
159.31 281.76 -1182.88 180 211 245
143.56 280.03 -1175.63 97 128 179
128.79 280.03 -1175.63 87 121 170
113.33 278.33 -1168.48 80 109 162
98.65 278.33 -1168.48 81 112 163
83.97 278.33 -1168.48 87 117 168
68.87 276.64 -1161.41 22 37 67
54.61 278.33 -1168.48 3 4 9
40.42 281.76 -1182.88 4 6 17
25.56 281.76 -1182.88 42 35 34
10.77 283.50 -1190.21 12 12 16
777.64 288.26 -1212.76 27 33 51
762.41 288.26 -1212.76 65 67 80
719.89 277.74 -1168.48 47 50 60
553.62 218.04 -917.31 134 125 128
536.97 215.97 -908.63 125 124 124
525.55 215.97 -908.63 87 84 84
514.14 215.97 -908.63 73 74 79
500.36 214.96 -904.35 61 66 73
488.99 214.96 -904.35 144 143 144
475.39 213.95 -900.11 120 116 117
461.92 212.95 -895.91 49 50 56
446.50 210.98 -887.63 8 7 16
429.39 208.10 -875.49 95 96 254
418.39 208.10 -875.49 45 45 241
405.55 207.15 -871.51 85 76 249
392.82 206.22 -867.58 50 45 209
381.92 206.22 -867.58 73 72 192
371.02 206.22 -867.58 40 34 135
360.12 206.22 -867.58 47 47 50
349.22 206.22 -867.58 93 91 93
339.85 207.15 -871.51 22 28 35
330.40 208.10 -875.49 65 75 86
319.41 208.10 -875.49 73 85 98
305.62 206.22 -867.58 97 113 127
293.40 205.29 -863.67 77 74 74
281.28 204.37 -859.81 132 145 156
270.48 204.37 -859.81 28 30 42
258.52 203.46 -855.97 119 131 137
246.67 202.56 -852.18 186 195 200
235.96 202.56 -852.18 131 139 149
230.36 207.15 -871.51 99 127 149
303.41 286.46 -1205.15 112 142 182
209.42 208.10 -875.49 29 32 41
191.44 200.77 -844.68 136 170 217
180.82 200.77 -844.68 89 98 122
177.23 209.05 -879.50 179 213 253
219.45 276.06 -1161.41 185 218 255
152.34 205.29 -863.67 154 143 151
140.86 204.37 -859.81 121 148 177
178.92 281.16 -1182.88 183 216 250
164.06 281.16 -1182.88 179 211 246
148.29 279.44 -1175.63 110 137 176
133.52 279.44 -1175.63 88 122 173
118.03 277.74 -1168.48 76 108 161
103.35 277.74 -1168.48 85 114 164
88.67 277.74 -1168.48 89 118 167
73.54 276.06 -1161.41 29 56 115
58.95 276.06 -1161.41 78 70 72
44.90 279.44 -1175.63 62 67 77
30.32 281.16 -1182.88 4 2 5
15.55 282.90 -1190.21 9 12 15
0.60 282.90 -1190.21 9 8 12
772.16 289.48 -1220.47 61 65 81
733.52 280.57 -1182.88 55 59 69
559.99 218.62 -921.71 130 130 142
540.62 215.52 -908.63 143 147 162
529.21 215.52 -908.63 119 114 115
517.79 215.52 -908.63 83 83 85
506.38 215.52 -908.63 52 58 67
492.63 214.50 -904.35 86 89 98
479.01 213.50 -900.11 124 125 123
467.70 213.50 -900.11 112 108 108
452.16 211.51 -891.75 10 11 17
438.92 210.54 -887.63 8 8 19
421.91 207.66 -875.49 31 34 230
409.05 206.72 -871.51 85 79 252
398.10 206.72 -871.51 75 69 223
385.40 205.78 -867.58 31 31 183
374.50 205.78 -867.58 35 34 148
363.60 205.78 -867.58 30 33 38
352.71 205.78 -867.58 41 42 45
343.36 206.72 -871.51 22 25 30
333.92 207.66 -875.49 11 13 16
321.46 206.72 -871.51 123 130 137
310.51 206.72 -871.51 216 212 211
298.21 205.78 -867.58 108 103 104
283.47 203.03 -855.97 86 93 104
273.93 203.94 -859.81 99 115 131
263.13 203.94 -859.81 79 80 81
250.09 202.13 -852.18 22 23 22
239.39 202.13 -852.18 115 123 135
232.81 205.78 -867.58 89 111 132
291.78 270.57 -1140.72 139 145 158
263.37 256.84 -1082.83 96 104 127
274.53 282.31 -1190.21 119 115 123
183.41 199.47 -840.98 75 73 82
180.76 208.61 -879.50 181 214 253
224.12 275.48 -1161.41 174 209 253
155.81 204.86 -863.67 125 144 190
144.31 203.94 -859.81 197 202 211
183.68 280.57 -1182.88 181 216 251
168.82 280.57 -1182.88 180 214 250
153.96 280.57 -1182.88 163 202 242
138.24 278.85 -1175.63 91 122 173
123.47 278.85 -1175.63 85 118 168
108.04 277.15 -1168.48 75 105 158
93.36 277.15 -1168.48 84 115 166
78.68 277.15 -1168.48 87 112 165
63.62 275.48 -1161.41 86 79 77
49.63 278.85 -1175.63 34 35 33
35.07 280.57 -1182.88 2 4 6
20.34 282.31 -1190.21 25 23 17
5.38 282.31 -1190.21 11 12 16
777.07 288.87 -1220.47 65 67 81
747.48 283.47 -1197.63 64 68 80
586.20 226.87 -958.51 21 28 42
546.86 216.08 -912.95 191 186 188
532.86 215.06 -908.63 125 120 122
521.44 215.06 -908.63 83 81 83
510.03 215.06 -908.63 50 54 64
496.27 214.05 -904.35 74 76 83
482.63 213.05 -900.11 132 131 132
471.32 213.05 -900.11 123 118 118
457.87 212.05 -895.91 31 36 41
442.48 210.09 -887.63 7 7 13
425.43 207.22 -875.49 26 32 226
412.55 206.28 -871.51 61 60 248
401.61 206.28 -871.51 85 76 232
388.89 205.35 -867.58 24 24 189
377.99 205.35 -867.58 32 33 165
367.09 205.35 -867.58 23 26 31
356.19 205.35 -867.58 37 41 47
345.29 205.35 -867.58 64 68 78
337.44 207.22 -875.49 10 11 15
324.96 206.28 -871.51 70 79 90
314.01 206.28 -871.51 188 183 183
301.70 205.35 -867.58 54 55 58
286.91 202.60 -855.97 198 200 202
278.64 204.42 -863.67 88 107 122
264.22 201.70 -852.18 97 95 97
254.65 202.60 -855.97 103 112 124
241.74 200.81 -848.41 200 203 205
235.24 204.42 -863.67 73 91 113
298.13 271.61 -1147.53 147 144 146
250.75 240.05 -1014.20 101 119 141
282.82 285.24 -1205.15 132 124 124
186.79 199.05 -840.98 173 164 161
184.30 208.17 -879.50 174 208 246
204.10 245.23 -1036.09 134 168 230
158.57 203.51 -859.81 136 148 195
147.77 203.51 -859.81 192 193 206
188.43 279.97 -1182.88 187 218 252
173.57 279.97 -1182.88 180 215 251
158.71 279.97 -1182.88 177 210 246
142.97 278.26 -1175.63 99 131 180
128.20 278.26 -1175.63 89 119 170
112.74 276.57 -1168.48 76 103 159
98.06 276.57 -1168.48 81 111 165
83.38 276.57 -1168.48 87 116 165
68.29 274.89 -1161.41 21 34 63
54.02 276.57 -1168.48 4 5 7
39.83 279.97 -1182.88 5 5 17
24.97 279.97 -1182.88 37 31 33
10.17 281.71 -1190.21 11 12 16
786.98 290.10 -1228.27 69 70 81
761.80 286.44 -1212.76 71 75 87
674.18 258.67 -1095.18 43 45 54
553.16 216.66 -917.31 122 119 130
536.51 214.60 -908.63 118 112 114
525.10 214.60 -908.63 80 77 79
513.68 214.60 -908.63 47 51 56
502.27 214.60 -908.63 88 96 109
486.25 212.59 -900.11 113 113 115
474.94 212.59 -900.11 120 120 120
461.47 211.60 -895.91 56 55 59
448.12 210.62 -891.75 10 11 16
428.95 206.78 -875.49 29 30 226
417.95 206.78 -875.49 39 40 234
405.11 205.84 -871.51 82 75 239
392.38 204.91 -867.58 67 59 199
381.48 204.91 -867.58 99 90 189
370.58 204.91 -867.58 19 23 32
359.68 204.91 -867.58 54 54 55
348.78 204.91 -867.58 241 240 240
339.42 205.84 -871.51 31 34 42
329.96 206.78 -875.49 51 62 71
317.52 205.84 -871.51 104 112 117
305.18 204.91 -867.58 68 77 87
291.65 203.07 -859.81 104 100 98
280.85 203.07 -859.81 91 109 120
270.05 203.07 -859.81 18 23 32
258.09 202.17 -855.97 122 135 145
246.24 201.27 -852.18 191 197 201
234.49 200.38 -848.41 122 130 134
229.93 205.84 -871.51 72 94 116
283.25 266.26 -1127.32 138 142 150
211.88 209.65 -887.63 23 26 38
191.01 199.50 -844.68 121 160 212
180.40 199.50 -844.68 89 100 119
176.79 207.72 -879.50 123 161 217
163.49 204.91 -867.58 144 163 211
150.55 202.17 -855.97 36 38 93
140.42 203.07 -859.81 114 118 159
178.33 279.38 -1182.88 183 217 253
163.47 279.38 -1182.88 179 212 248
147.70 277.67 -1175.63 104 135 182
132.93 277.67 -1175.63 89 122 172
117.44 275.98 -1168.48 75 106 159
102.76 275.98 -1168.48 82 110 164
88.08 275.98 -1168.48 84 112 163
72.95 274.31 -1161.41 15 33 80
58.36 274.31 -1161.41 74 68 69
44.31 277.67 -1175.63 27 35 62
29.72 279.38 -1182.88 4 3 4
14.95 281.11 -1190.21 9 13 14
797.01 291.35 -1236.18 44 49 71
771.55 287.64 -1220.47 72 74 89
742.07 282.26 -1197.63 64 67 77
556.85 216.19 -917.31 181 176 173
540.16 214.15 -908.63 136 134 142
528.75 214.15 -908.63 114 109 111
517.33 214.15 -908.63 82 83 85
505.92 214.15 -908.63 68 76 91
494.50 214.15 -908.63 212 213 219
478.56 212.14 -900.11 131 128 131
467.25 212.14 -900.11 107 104 104
451.71 210.17 -891.75 12 15 19
438.47 209.20 -887.63 7 8 15
421.47 206.34 -875.49 36 37 228
408.61 205.40 -871.51 76 71 244
395.87 204.47 -867.58 84 79 216
384.97 204.47 -867.58 90 83 192
374.07 204.47 -867.58 25 26 71
363.17 204.47 -867.58 58 57 56
352.27 204.47 -867.58 28 30 33
342.92 205.40 -871.51 23 26 32
333.48 206.34 -875.49 8 10 15
321.02 205.40 -871.51 136 134 135
308.67 204.47 -867.58 175 175 177
297.77 204.47 -867.58 106 97 97
283.04 201.74 -855.97 147 155 163
274.73 203.55 -863.67 79 96 114
262.70 202.64 -859.81 96 98 101
249.66 200.84 -852.18 201 201 197
237.90 199.96 -848.41 150 158 168
232.38 204.47 -867.58 95 115 135
291.20 268.85 -1140.72 143 138 135
209.63 203.55 -863.67 94 100 116
267.31 273.73 -1161.41 121 116 120
182.99 198.21 -840.98 68 71 82
180.32 207.28 -879.50 153 186 227
218.25 267.26 -1133.98 156 186 240
153.99 201.74 -855.97 28 36 82
142.60 200.84 -852.18 47 53 132
183.08 278.78 -1182.88 187 218 252
168.22 278.78 -1182.88 177 213 250
153.36 278.78 -1182.88 160 200 244
137.65 277.08 -1175.63 91 119 172
122.88 277.08 -1175.63 83 112 162
107.46 275.39 -1168.48 72 103 156
92.78 275.39 -1168.48 86 114 164
78.10 275.39 -1168.48 79 111 160
63.03 273.73 -1161.41 43 48 65
49.04 277.08 -1175.63 61 65 64
34.48 278.78 -1182.88 4 4 7
19.62 278.78 -1182.88 24 23 19
4.78 280.51 -1190.21 9 12 15
781.42 288.87 -1228.27 77 77 91
756.31 285.22 -1212.76 70 73 87
582.81 224.30 -953.75 23 29 49
546.40 214.71 -912.95 191 181 176
532.40 213.69 -908.63 117 114 115
520.99 213.69 -908.63 57 59 66
509.57 213.69 -908.63 57 65 79
498.16 213.69 -908.63 184 183 185
482.18 211.69 -900.11 139 136 137
470.87 211.69 -900.11 123 117 119
457.42 210.70 -895.91 35 38 45
442.04 208.75 -887.63 9 10 13
424.99 205.90 -875.49 28 30 221
412.12 204.96 -871.51 67 65 242
401.17 204.96 -871.51 82 73 220
388.46 204.04 -867.58 49 45 182
377.56 204.04 -867.58 52 49 165
366.66 204.04 -867.58 33 34 39
355.76 204.04 -867.58 56 58 60
346.42 204.96 -871.51 29 31 35
337.00 205.90 -875.49 5 7 9
324.53 204.96 -871.51 163 164 168
313.58 204.96 -871.51 160 157 157
302.63 204.96 -871.51 24 27 31
287.76 202.21 -859.81 226 225 226
278.20 203.12 -863.67 86 103 120
263.79 200.42 -852.18 140 136 139
254.22 201.31 -855.97 32 41 52
241.31 199.53 -848.41 113 122 128
235.86 204.04 -867.58 51 67 86
299.35 271.50 -1154.43 141 136 136
255.64 243.67 -1036.09 127 127 133
282.22 283.43 -1205.15 134 124 123
186.37 197.78 -840.98 163 156 155
183.86 206.84 -879.50 126 172 223
173.60 207.79 -883.54 114 139 185
157.43 201.31 -855.97 45 54 98
147.34 202.21 -859.81 53 64 137
136.54 202.21 -859.81 106 112 162
172.98 278.19 -1182.88 182 218 254
158.12 278.19 -1182.88 176 210 248
142.38 276.49 -1175.63 92 125 176
127.61 276.49 -1175.63 85 115 168
112.15 274.80 -1168.48 73 102 156
97.47 274.80 -1168.48 79 110 162
82.79 274.80 -1168.48 87 113 163
67.70 273.14 -1161.41 21 35 64
53.43 274.80 -1168.48 4 4 10
39.23 278.19 -1182.88 4 5 15
24.37 278.19 -1182.88 28 29 30
9.57 279.91 -1190.21 12 12 16
786.36 288.25 -1228.27 79 80 91
766.03 286.42 -1220.47 76 79 90
607.77 231.89 -988.11 35 39 49
550.07 214.25 -912.95 168 166 172
538.60 214.25 -912.95 108 105 105
524.64 213.24 -908.63 78 79 80
513.23 213.24 -908.63 46 52 63
501.81 213.24 -908.63 155 158 164
490.39 213.24 -908.63 217 216 217
474.49 211.24 -900.11 137 132 134
461.02 210.25 -895.91 61 60 63
447.68 209.27 -891.75 11 13 20
428.51 205.46 -875.49 30 29 215
417.51 205.46 -875.49 43 44 233
404.67 204.53 -871.51 80 71 227
391.94 203.60 -867.58 28 28 187
381.04 203.60 -867.58 29 26 148
370.14 203.60 -867.58 20 24 27
359.25 203.60 -867.58 62 61 63
348.35 203.60 -867.58 148 141 132
340.52 205.46 -875.49 30 32 41
328.03 204.53 -871.51 32 38 52
317.08 204.53 -871.51 144 148 153
304.75 203.60 -867.58 124 126 130
291.22 201.78 -859.81 93 87 84
280.42 201.78 -859.81 108 122 137
269.61 201.78 -859.81 28 34 42
257.66 200.88 -855.97 114 123 127
245.81 199.99 -852.18 127 134 140
234.06 199.10 -848.41 142 150 155
238.13 212.23 -904.35 114 115 119
281.04 263.01 -1120.74 139 134 136
215.41 212.23 -904.35 40 45 59
190.59 198.23 -844.68 115 130 151
179.98 198.23 -844.68 82 91 113
173.95 203.60 -867.58 73 115 178
161.60 201.78 -859.81 62 69 129
149.46 199.99 -852.18 28 33 122
136.33 196.50 -837.31 26 30 118
177.73 277.60 -1182.88 198 223 252
162.87 277.60 -1182.88 173 212 252
147.11 275.90 -1175.63 101 133 182
132.34 275.90 -1175.63 89 120 170
116.85 274.22 -1168.48 76 106 158
102.17 274.22 -1168.48 83 112 164
87.49 274.22 -1168.48 87 115 164
72.37 272.56 -1161.41 18 34 69
57.78 272.56 -1161.41 62 57 60
43.99 277.60 -1182.88 10 17 31
29.13 277.60 -1182.88 4 4 4
14.35 279.32 -1190.21 12 12 18
791.30 287.63 -1228.27 81 82 97
770.93 285.80 -1220.47 73 75 87
741.46 280.46 -1197.63 65 67 78
556.39 214.81 -917.31 135 127 125
542.27 213.79 -912.95 116 114 117
528.29 212.78 -908.63 82 80 80
516.88 212.78 -908.63 49 52 63
505.46 212.78 -908.63 138 145 152
494.05 212.78 -908.63 199 197 198
478.11 210.78 -900.11 144 141 142
466.80 210.78 -900.11 116 113 112
453.37 209.80 -895.91 34 35 44
438.02 207.86 -887.63 6 7 13
421.03 205.02 -875.49 37 39 227
408.17 204.09 -871.51 72 66 232
395.43 203.17 -867.58 34 34 195
384.53 203.17 -867.58 72 67 183
373.63 203.17 -867.58 22 24 32
362.73 203.17 -867.58 61 60 62
351.83 203.17 -867.58 17 16 17
342.48 204.09 -871.51 22 26 30
333.04 205.02 -875.49 8 13 18
320.58 204.09 -871.51 95 99 105
308.24 203.17 -867.58 174 170 170
297.34 203.17 -867.58 95 89 89
282.61 200.45 -855.97 142 142 148
274.30 202.25 -863.67 54 68 80
262.27 201.35 -859.81 140 141 146
249.23 199.56 -852.18 182 183 185
237.47 198.68 -848.41 126 140 148
231.94 203.17 -867.58 90 112 129
290.63 267.13 -1140.72 143 135 134
209.20 202.25 -863.67 106 114 135
258.89 263.99 -1127.32 115 112 119
182.57 196.94 -840.98 54 60 72
179.88 205.96 -879.50 122 167 221
165.79 202.25 -863.67 59 63 130
152.88 199.56 -852.18 36 37 111
140.31 196.94 -840.98 31 32 126
129.74 196.94 -840.98 115 120 162
167.63 277.00 -1182.88 190 218 252
152.77 277.00 -1182.88 75 121 185
137.06 275.31 -1175.63 89 119 170
122.29 275.31 -1175.63 82 113 163
106.87 273.63 -1168.48 77 106 158
92.19 273.63 -1168.48 83 110 162
77.51 273.63 -1168.48 78 107 158
62.45 271.98 -1161.41 24 34 65
48.44 275.31 -1175.63 41 46 62
33.88 277.00 -1182.88 3 3 7
19.02 277.00 -1182.88 19 16 16
4.19 278.72 -1190.21 12 12 15
780.80 287.01 -1228.27 80 80 92
755.71 283.39 -1212.76 72 75 89
560.08 214.35 -917.31 128 140 160
545.94 213.33 -912.95 119 109 110
531.95 212.32 -908.63 111 110 113
520.53 212.32 -908.63 50 50 56
509.12 212.32 -908.63 121 132 145
497.70 212.32 -908.63 221 213 211
486.29 212.32 -908.63 215 214 217
470.42 210.33 -900.11 124 122 122
456.97 209.35 -895.91 30 33 39
441.59 207.41 -887.63 6 7 12
424.55 204.58 -875.49 27 32 219
411.68 203.65 -871.51 62 58 235
400.73 203.65 -871.51 60 54 201
388.02 202.73 -867.58 83 73 187
377.12 202.73 -867.58 19 20 36
366.22 202.73 -867.58 63 60 60
355.32 202.73 -867.58 49 51 53
345.99 203.65 -871.51 27 27 32
336.56 204.58 -875.49 7 9 14
324.09 203.65 -871.51 181 181 182
313.14 203.65 -871.51 183 182 184
302.19 203.65 -871.51 26 29 32
287.33 200.91 -859.81 182 185 195
277.77 201.82 -863.67 79 97 111
264.54 200.02 -855.97 82 85 90
253.79 200.02 -855.97 47 57 69
240.89 198.25 -848.41 110 122 132
235.43 202.73 -867.58 85 99 112
298.77 269.76 -1154.43 141 134 133
249.73 236.99 -1014.20 135 130 131
281.61 281.61 -1205.15 123 119 121
186.77 197.38 -844.68 147 142 141
180.12 201.82 -863.67 95 120 160
169.27 201.82 -863.67 77 82 143
157.00 200.02 -855.97 22 23 72
146.90 200.91 -859.81 45 50 136
133.12 196.51 -840.98 48 53 135
172.38 276.41 -1182.88 202 225 251
157.52 276.41 -1182.88 183 214 249
141.79 274.71 -1175.63 87 120 171
127.02 274.71 -1175.63 83 115 166
111.57 273.04 -1168.48 69 99 153
96.89 273.04 -1168.48 82 108 158
82.21 273.04 -1168.48 83 111 162
67.12 271.39 -1161.41 23 35 63
52.85 273.04 -1168.48 5 6 9
38.64 276.41 -1182.88 4 6 12
23.78 276.41 -1182.88 26 25 27
8.97 278.12 -1190.21 10 12 13
785.74 286.40 -1228.27 83 83 96
765.41 284.58 -1220.47 75 78 91
601.09 228.05 -978.04 35 37 52
549.61 212.87 -912.95 181 176 178
535.60 211.87 -908.63 116 112 114
524.18 211.87 -908.63 60 61 66
512.77 211.87 -908.63 106 121 137
501.35 211.87 -908.63 228 219 216
489.94 211.87 -908.63 218 215 214
474.04 209.88 -900.11 148 145 146
460.57 208.90 -895.91 72 68 71
447.23 207.93 -891.75 14 15 20
426.13 203.21 -871.51 33 33 198
417.07 204.14 -875.49 43 45 229
404.23 203.21 -871.51 63 59 216
393.28 203.21 -871.51 87 80 196
380.61 202.29 -867.58 51 48 147
369.71 202.29 -867.58 34 35 36
358.81 202.29 -867.58 55 56 57
349.49 203.21 -871.51 52 44 44
340.08 204.14 -875.49 20 23 24
327.59 203.21 -871.51 52 60 69
316.64 203.21 -871.51 63 80 112
304.31 202.29 -867.58 187 186 185
290.79 200.48 -859.81 94 90 86
279.98 200.48 -859.81 105 122 139
267.98 199.59 -855.97 40 44 52
258.38 200.48 -859.81 146 149 155
245.38 198.70 -852.18 95 106 119
233.64 197.82 -848.41 160 170 178
307.10 272.46 -1168.48 140 134 134
275.65 256.83 -1101.46 136 132 132
207.15 203.21 -871.51 26 34 47
190.16 196.95 -844.68 124 118 120
179.55 196.95 -844.68 81 86 111
176.71 206.02 -883.54 40 58 109
160.44 199.59 -855.97 18 23 70
148.37 197.82 -848.41 26 27 126
135.32 194.39 -833.68 21 25 127
127.05 197.82 -848.41 134 141 175
162.28 275.81 -1182.88 200 222 249
146.51 274.12 -1175.63 97 128 178
131.74 274.12 -1175.63 90 119 170
116.26 272.46 -1168.48 73 102 155
101.58 272.46 -1168.48 80 110 161
86.90 272.46 -1168.48 80 111 161
71.79 270.81 -1161.41 19 34 64
57.20 270.81 -1161.41 34 36 47
43.39 275.81 -1182.88 8 12 17
28.53 275.81 -1182.88 4 3 6
13.76 277.52 -1190.21 9 13 14
790.68 285.78 -1228.27 85 87 99
770.32 283.96 -1220.47 83 83 95
745.51 280.40 -1205.15 69 71 84
555.93 213.43 -917.31 144 140 145
541.82 212.41 -912.95 115 111 112
527.84 211.41 -908.63 85 83 84
516.42 211.41 -908.63 60 76 94
505.01 211.41 -908.63 231 223 218
493.59 211.41 -908.63 226 218 215
482.18 211.41 -908.63 204 201 201
466.35 209.43 -900.11 123 119 120
450.81 207.48 -891.75 26 30 34
437.58 206.52 -887.63 8 7 12
420.59 203.70 -875.49 36 38 225
407.74 202.77 -871.51 63 57 223
396.79 202.77 -871.51 63 57 194
384.10 201.86 -867.58 34 32 137
373.20 201.86 -867.58 21 24 30
362.30 201.86 -867.58 60 59 59
351.40 201.86 -867.58 36 36 39
342.04 202.77 -871.51 23 26 31
332.60 203.70 -875.49 7 9 12
320.15 202.77 -871.51 133 132 135
307.80 201.86 -867.58 100 102 107
296.90 201.86 -867.58 91 84 83
282.18 199.16 -855.97 106 114 121
272.64 200.05 -859.81 17 23 34
261.84 200.05 -859.81 73 82 97
248.81 198.27 -852.18 193 193 196
237.05 197.40 -848.41 186 189 193
231.50 201.86 -867.58 94 111 126
290.06 265.41 -1140.72 141 136 133
207.83 200.05 -859.81 63 68 82
193.56 196.53 -844.68 99 98 103
182.15 195.67 -840.98 51 60 77
176.21 200.95 -863.67 125 134 145
165.36 200.95 -863.67 55 55 120
151.78 197.40 -848.41 26 26 127
139.27 194.82 -837.31 25 29 133
128.20 193.97 -833.68 35 36 120
167.03 275.22 -1182.88 201 222 249
152.17 275.22 -1182.88 11 34 90
136.47 273.53 -1175.63 90 119 171
121.70 273.53 -1175.63 87 114 168
106.28 271.87 -1168.48 75 108 158
91.60 271.87 -1168.48 97 121 164
76.92 271.87 -1168.48 75 101 158
61.87 270.22 -1161.41 50 56 75
47.85 273.53 -1175.63 14 22 39
33.29 275.22 -1182.88 4 3 5
18.43 275.22 -1182.88 18 14 14
3.59 276.92 -1190.21 9 11 15
780.19 285.16 -1228.27 88 89 102
755.10 281.56 -1212.76 78 81 95
559.62 212.97 -917.31 129 121 125
545.49 211.95 -912.95 124 123 126
531.49 210.95 -908.63 98 100 105
520.07 210.95 -908.63 51 56 66
508.66 210.95 -908.63 235 231 232
497.24 210.95 -908.63 178 173 174
485.83 210.95 -908.63 221 215 215
469.97 208.97 -900.11 133 130 129
456.52 208.00 -895.91 35 38 42
441.15 206.08 -887.63 9 10 15
424.11 203.26 -875.49 29 32 216
411.24 202.34 -871.51 59 55 227
400.29 202.34 -871.51 67 62 201
387.58 201.42 -867.58 71 66 178
376.68 201.42 -867.58 21 23 30
365.78 201.42 -867.58 62 59 59
354.89 201.42 -867.58 48 53 59
345.55 202.34 -871.51 25 27 31
336.12 203.26 -875.49 8 8 10
323.65 202.34 -871.51 109 114 125
312.70 202.34 -871.51 151 158 175
301.75 202.34 -871.51 25 27 31
285.62 198.73 -855.97 182 181 184
277.34 200.52 -863.67 161 176 188
265.29 199.62 -859.81 30 36 44
253.36 198.73 -855.97 128 128 132
241.53 197.85 -852.18 188 191 191
234.99 201.42 -867.58 120 136 152
298.19 268.02 -1154.43 141 135 136
230.93 218.18 -939.75 123 124 132
281.01 279.79 -1205.15 158 152 149
186.34 196.11 -844.68 133 128 126
179.68 200.52 -863.67 129 130 134
168.83 200.52 -863.67 68 65 133
155.19 196.97 -848.41 27 29 113
146.47 199.62 -859.81 67 75 162
131.55 193.55 -833.68 18 26 127
171.79 274.62 -1182.88 199 216 236
156.93 274.62 -1182.88 194 216 246
141.20 272.94 -1175.63 88 120 172
126.43 272.94 -1175.63 85 116 167
110.98 271.28 -1168.48 70 99 154
96.30 271.28 -1168.48 84 111 160
81.62 271.28 -1168.48 77 110 160
66.53 269.64 -1161.41 54 53 66
52.26 271.28 -1168.48 6 7 10
38.04 274.62 -1182.88 3 4 14
23.18 274.62 -1182.88 20 19 21
8.37 276.33 -1190.21 15 12 15
785.12 284.55 -1228.27 90 92 107
764.80 282.74 -1220.47 79 82 95
600.60 226.58 -978.04 32 40 54
549.16 211.50 -912.95 165 154 150
